# .PCD v0.7 - Point Cloud Data file format
VERSION 0.7
FIELDS x y z rgb
SIZE 4 4 4 4
TYPE F F F F
COUNT 1 1 1 1
WIDTH 1004
HEIGHT 1
VIEWPOINT 0 0 0 1 0 0 0
POINTS 1004
DATA ascii
0.56553817 -0.26878917 0.73043996 2.7903986e-39
0.56607151 -0.26571643 0.73099345 2.7903986e-39
0.56660461 -0.2629146 0.73036557 2.7903986e-39
0.56719178 -0.25969931 0.73046136 2.7903986e-39
0.56763041 -0.25700745 0.73033917 2.7903986e-39
0.56823456 -0.25396359 0.7308116 2.7903986e-39
0.5686419 -0.25108114 0.73033369 2.7903986e-39
0.56920719 -0.247371 0.73026073 2.7903986e-39
0.56967598 -0.24438204 0.7303018 2.7903986e-39
0.57012779 -0.24203067 0.73095489 2.7903986e-39
0.57051396 -0.23912409 0.73050332 2.7903986e-39
0.57107663 -0.2353999 0.73043561 2.7903986e-39
0.57154334 -0.23240045 0.73048091 2.7903986e-39
0.57191914 -0.22991385 0.73043633 2.7903986e-39
0.57238066 -0.22712678 0.73068625 2.7903986e-39
0.57276869 -0.22420335 0.73023415 2.7903986e-39
0.57306015 -0.22200821 0.7298947 2.7903986e-39
0.57338256 -0.21992952 0.73030597 2.7903986e-39
0.57370442 -0.21785098 0.73071891 2.7903986e-39
0.57412267 -0.21503918 0.73102069 2.7903986e-39
0.57451093 -0.21210307 0.73057008 2.7903986e-39
0.57489276 -0.20916003 0.73012686 2.7903986e-39
0.5753597 -0.20603222 0.7307651 2.7903986e-39
0.57570755 -0.20306937 0.73036218 2.7903986e-39
0.57581341 -0.20099346 0.72905821 2.7903986e-39
0.5761342 -0.19992432 0.7310493 2.7903986e-39
0.57642865 -0.19693533 0.73070872 2.7903986e-39
0.57672346 -0.19394319 0.73036778 2.7903986e-39
0.57701057 -0.19094488 0.73003572 2.7903986e-39
0.57742417 -0.18779302 0.73073769 2.7903986e-39
0.57771051 -0.18479018 0.73040712 2.7903986e-39
0.57801539 -0.18198639 0.73044896 2.7903986e-39
0.57854575 -0.17945744 0.73062491 2.7903986e-39
0.57964474 -0.17810339 0.7305398 3.1620678e-39
0.58078164 -0.17636313 0.7296266 3.1620678e-39
0.58344162 -0.17419264 0.72972679 3.1620678e-39
0.58945584 -0.16398925 0.73115021 3.4131469e-39
0.59255075 -0.16306862 0.73001957 3.4131469e-39
0.59578139 -0.16294481 0.73072034 3.4131469e-39
0.59860313 -0.16238821 0.73032475 3.4131469e-39
0.60080981 -0.16257364 0.73141009 3.4131469e-39
0.55879366 -0.33691919 0.73488736 2.9521547e-39
0.55669343 -0.33461824 0.73268402 1.2918683e-39
0.55660892 -0.3315151 0.73278499 1.2918683e-39
0.55647755 -0.32838261 0.73294187 2.3986054e-39
0.55623937 -0.32518303 0.73322654 2.8599577e-39
0.55600142 -0.32198626 0.73351097 2.8671435e-39
0.55582309 -0.31959045 0.733724 2.7878833e-39
0.55573839 -0.3164942 0.73382521 2.7900399e-39
0.55598438 -0.3128432 0.73353124 2.7903986e-39
0.55647874 -0.31010219 0.73294055 2.7900399e-39
0.55713624 -0.30753312 0.73356718 2.7896798e-39
0.55777949 -0.30492854 0.73374283 2.7900399e-39
0.55808723 -0.30358887 0.7333765 2.7900399e-39
0.55867547 -0.30119115 0.73346019 2.789321e-39
0.55926436 -0.29879105 0.73354465 2.7896798e-39
0.56000853 -0.29571515 0.73344618 2.7900399e-39
0.56072998 -0.29277629 0.73376626 2.7886022e-39
0.56132573 -0.29021636 0.73345327 2.7896798e-39
0.56220406 -0.28643692 0.7331993 2.7900399e-39
0.56287336 -0.2834577 0.73358393 2.7882434e-39
0.56352192 -0.28046551 0.73399609 2.789321e-39
0.56419623 -0.27700424 0.73320186 2.7900399e-39
0.56472284 -0.2742891 0.73336524 2.7886022e-39
0.56509632 -0.27169958 0.73390615 2.7886022e-39
0.56561363 -0.26800019 0.73388714 2.7896812e-39
0.56611681 -0.26519352 0.73329669 2.7900399e-39
0.56670809 -0.26199123 0.73338652 2.789321e-39
0.56716663 -0.25948626 0.73363304 2.7896798e-39
0.56775886 -0.25627843 0.73372447 2.7896812e-39
0.56829327 -0.25346956 0.73309976 2.7900399e-39
0.56884885 -0.25040722 0.73362541 2.789321e-39
0.56934667 -0.24774311 0.73343658 2.7896812e-39
0.56980681 -0.24522935 0.73368454 2.7900399e-39
0.57007539 -0.24381773 0.73337173 2.7900399e-39
0.57054132 -0.24130464 0.73361212 2.789321e-39
0.57093525 -0.23858126 0.73354542 2.7896798e-39
0.57131976 -0.23585169 0.73349041 2.7900399e-39
0.57180262 -0.23256978 0.73371363 2.7900399e-39
0.57218802 -0.22965813 0.73326623 2.7900399e-39
0.57266849 -0.22637117 0.73349172 2.7900399e-39
0.57286352 -0.22455314 0.73248208 2.7903986e-39
0.5731172 -0.22332512 0.73375493 2.7900399e-39
0.59265858 -0.22421727 0.7335124 9.0367132e-39
0.5734393 -0.22089146 0.73338223 2.7900399e-39
0.57392073 -0.21759847 0.73360914 2.7900399e-39
0.57430702 -0.21467033 0.7331624 2.7903986e-39
0.57477367 -0.21155152 0.73379725 2.7900399e-39
0.57515287 -0.20861423 0.73335952 2.7900399e-39
0.57561874 -0.20549357 0.73399764 2.7900399e-39
0.57590371 -0.20328678 0.73366934 2.7903986e-39
0.57609373 -0.20181422 0.73345035 2.7903986e-39
0.58023316 -0.20165496 0.73293251 2.9521575e-39
0.57636911 -0.19959944 0.73313308 2.7903986e-39
0.57679468 -0.19646044 0.7338171 2.7900399e-39
0.58488429 -0.19549344 0.73325986 2.8599577e-39
0.57709181 -0.19347563 0.73347533 2.7900399e-39
0.60239786 -0.19284198 0.7349776 1.3174958e-38
0.5773865 -0.19048658 0.73313642 2.7903986e-39
0.57780367 -0.18734302 0.7338326 2.7903986e-39
0.57809877 -0.18434978 0.73349375 2.7903986e-39
0.57859653 -0.18155767 0.73370504 2.7903986e-39
0.57928067 -0.18051574 0.73448682 2.7903986e-39
0.5796302 -0.17869605 0.73330402 2.7903986e-39
0.58111435 -0.17553933 0.73356426 2.7903986e-39
0.58260167 -0.17237614 0.7338255 2.7903986e-39
0.58354372 -0.16997962 0.73353642 2.7903986e-39
0.58504957 -0.1689705 0.7349562 3.1620678e-39
0.58470488 -0.16686979 0.73300016 2.7882434e-39
0.58570409 -0.16684836 0.73421562 3.1609888e-39
0.58725011 -0.16483879 0.73364031 3.2373778e-39
0.59236252 -0.16423665 0.73258698 3.4131469e-39
0.59454739 -0.16442262 0.73366696 3.4131469e-39
0.59840077 -0.1635634 0.73290396 3.4131469e-39
0.6016528 -0.16344033 0.73361301 3.4131469e-39
0.56191218 -0.33913052 0.73589182 2.9521547e-39
0.56504273 -0.34135032 0.73690021 2.9521547e-39
0.55914748 -0.33646786 0.73681223 2.9521547e-39
0.56226277 -0.33867556 0.73781919 2.9521547e-39
0.55650526 -0.33383837 0.73604059 1.8450575e-39
0.55637944 -0.33144903 0.7354098 1.2918683e-39
0.55620122 -0.32905319 0.73562205 1.8450575e-39
0.55596364 -0.32586104 0.73590481 2.8599577e-39
0.55592972 -0.32232872 0.73672557 2.8610353e-39
0.55617315 -0.31959027 0.7368263 2.7745892e-39
0.55640179 -0.31669694 0.73655456 2.7778234e-39
0.55663061 -0.3138012 0.73628259 2.7799786e-39
0.55685973 -0.31090301 0.73601037 2.781775e-39
0.55734217 -0.30784097 0.73660934 2.8707365e-39
0.55769736 -0.30577558 0.73618799 2.8739707e-39
0.55818152 -0.3038305 0.73639375 2.7792597e-39
0.55866593 -0.30188462 0.7366007 2.7774632e-39
0.55945849 -0.2985965 0.73644471 2.8707365e-39
0.56032705 -0.29499269 0.7365886 2.7771045e-39
0.56088823 -0.29273075 0.73709786 2.8653471e-39
0.56119353 -0.29138178 0.73673832 2.8678624e-39
0.56165218 -0.28935537 0.73619819 2.8710952e-39
0.56236732 -0.28641295 0.73652643 2.7763856e-39
0.5630666 -0.28345889 0.73687589 2.8657058e-39
0.5636068 -0.28070235 0.73624206 2.8700176e-39
0.56420815 -0.2776888 0.73670632 2.7756668e-39
0.56461626 -0.27501261 0.73661852 2.7756682e-39
0.56506562 -0.27175218 0.73687339 2.8667848e-39
0.56546378 -0.26890266 0.73640788 2.8707365e-39
0.56589675 -0.26606682 0.73590171 2.7828526e-39
0.56644976 -0.26301846 0.73642528 2.778901e-39
0.56687003 -0.26066762 0.73710573 2.8671435e-39
0.56713569 -0.25927091 0.73679626 2.8696589e-39
0.5676679 -0.25647298 0.73617625 2.781775e-39
0.56830382 -0.25303599 0.73621511 2.7806974e-39
0.56865156 -0.25107259 0.73737109 2.8660659e-39
0.56934434 -0.24757387 0.73656684 2.7799786e-39
0.56989974 -0.24476932 0.73592228 2.7839316e-39
0.57017797 -0.24336471 0.73559934 2.785368e-39
0.57054913 -0.24162906 0.73692358 2.7767458e-39
0.57123268 -0.23798324 0.73671788 2.8710966e-39
0.57161367 -0.23508246 0.73627722 2.782854e-39
0.57209128 -0.2318057 0.73650438 2.7810562e-39
0.57247341 -0.22907589 0.73645276 2.781775e-39
0.5727607 -0.22689369 0.73612106 2.7839316e-39
0.57304716 -0.22524661 0.73696095 2.8728931e-39
0.5733341 -0.22306171 0.73663032 2.7832128e-39
0.57371974 -0.22014627 0.73618597 2.7857281e-39
0.57420647 -0.21704516 0.73679411 2.7821338e-39
0.57456881 -0.21411359 0.73637736 2.7846491e-39
0.57503343 -0.21100146 0.73701322 2.7832128e-39
0.57541192 -0.2080707 0.7365787 2.785368e-39
0.57579076 -0.20513597 0.73614365 2.7875246e-39
0.57625574 -0.20202126 0.73677874 2.7839316e-39
0.57663548 -0.19908077 0.7363435 2.7860868e-39
0.57710075 -0.19596466 0.73698056 2.7846505e-39
0.57745874 -0.19300988 0.73657095 2.7871644e-39
0.57775307 -0.19002706 0.73623437 2.7889609e-39
0.57804751 -0.1870411 0.73589748 2.7896812e-39
0.57843053 -0.18466485 0.73662829 2.7868057e-39
0.57908946 -0.18316516 0.73704588 2.7871658e-39
0.58002263 -0.18079299 0.73676157 2.7878833e-39
0.58091867 -0.17820589 0.73613119 2.7886022e-39
0.58244658 -0.17740943 0.73790163 3.1555994e-39
0.58078921 -0.17566362 0.73642409 2.8757713e-39
0.58283854 -0.17508121 0.73667938 2.9747983e-39
0.58386421 -0.17285138 0.73629737 3.0680729e-39
0.58521104 -0.17178212 0.73711294 3.1609888e-39
0.58461416 -0.17038237 0.7354489 3.1620678e-39
0.58638108 -0.16966166 0.7369625 3.161349e-39
0.58725572 -0.16683379 0.73597825 3.1620678e-39
0.58880711 -0.16681921 0.73774064 3.161349e-39
0.58894873 -0.16469787 0.73641455 3.1570372e-39
0.60354495 -0.16399845 0.73544049 3.4131469e-39
0.56852913 -0.34311628 0.73984444 2.9521547e-39
0.56538999 -0.34089166 0.73882991 2.9521547e-39
0.55950046 -0.33601773 0.73873228 2.9521547e-39
0.56261247 -0.33822179 0.73974156 2.9521547e-39
0.55675542 -0.33337665 0.73963964 2.9521547e-39
0.55601305 -0.33132094 0.73896295 1.2918683e-39
0.55604655 -0.32833549 0.73954546 2.0298159e-39
0.5473848 -0.32654887 0.73895943 2.8599577e-39
0.55622238 -0.32503104 0.73910427 2.8599577e-39
0.55651593 -0.32233009 0.73914558 2.8599577e-39
0.55693191 -0.31909066 0.73943114 2.8599577e-39
0.55732602 -0.31583735 0.73974174 2.8599577e-39
0.5576157 -0.3131302 0.73978788 2.8599577e-39
0.55761844 -0.31041551 0.73861957 2.8599577e-39
0.55808872 -0.31007043 0.74039489 2.8599577e-39
0.55784768 -0.30751887 0.73834872 2.8599577e-39
0.55833578 -0.30718753 0.7401039 2.8599577e-39
0.5583933 -0.30464837 0.73925924 2.8599577e-39
0.55891109 -0.30146155 0.73942637 2.8599577e-39
0.55967855 -0.29857165 0.73968732 2.8599577e-39
0.56022245 -0.29600301 0.73943663 2.8599577e-39
0.56079024 -0.29359746 0.73954713 2.8599577e-39
0.56109476 -0.29225183 0.73918974 2.8599577e-39
0.56174344 -0.28964534 0.73936033 2.8599577e-39
0.56252134 -0.28638324 0.73984814 2.8599577e-39
0.55380458 -0.28438714 0.74085009 4.7046494e-39
0.5632782 -0.28299743 0.73896325 2.8599577e-39
0.56378019 -0.28069973 0.73954064 2.8599577e-39
0.56403047 -0.2790277 0.74041367 2.8599577e-39
0.56432736 -0.27690279 0.74006778 2.8599577e-39
0.56472361 -0.27406621 0.73960614 2.8599577e-39
0.56512058 -0.27122554 0.73914373 2.8599577e-39
0.56556916 -0.26797062 0.73939711 2.8599577e-39
0.56597018 -0.26528847 0.73931873 2.8603164e-39
0.5665164 -0.26224506 0.73984939 2.8599577e-39
0.56691372 -0.2601561 0.73938817 2.8599577e-39
0.56717896 -0.25876164 0.73908037 2.8599577e-39
0.56762582 -0.25642905 0.73972547 2.8599577e-39
0.56814241 -0.25379547 0.73951548 2.8603164e-39
0.56877768 -0.25061986 0.73955703 2.8599577e-39
0.56941867 -0.24744433 0.73959136 2.8599577e-39
0.62865651 -0.24674761 0.74089843 5.2581945e-39
0.56980884 -0.24550526 0.7395286 2.8599577e-39
0.57008612 -0.24410519 0.73920852 2.8603164e-39
0.57056427 -0.24178302 0.73982197 2.8599577e-39
0.57112008 -0.23897661 0.73918152 2.8599577e-39
0.571702 -0.23593375 0.73967469 2.8599577e-39
0.572097 -0.23304394 0.73922038 2.8606765e-39
0.57257462 -0.22995012 0.73983622 2.8599577e-39
0.57285994 -0.22777359 0.73950863 2.8599577e-39
0.57305038 -0.22632127 0.73929 2.8599577e-39
0.57344306 -0.22377793 0.73961467 2.8599577e-39
0.57389456 -0.22066247 0.73925197 2.8621129e-39
0.57442957 -0.2180064 0.74003625 2.8599577e-39
0.5748421 -0.21510415 0.7395643 2.8599577e-39
0.57515097 -0.21215399 0.73921096 2.8603164e-39
0.57564771 -0.20906152 0.73980606 2.8606765e-39
0.5757758 -0.20624635 0.73849618 2.8653471e-39
0.57611549 -0.20532827 0.73965979 2.862473e-39
0.57644975 -0.20301075 0.74005461 2.8599577e-39
0.57675505 -0.20004909 0.7397067 2.8599577e-39
0.57708037 -0.19709186 0.73933583 2.8610353e-39
0.57760489 -0.19400568 0.73990107 2.8621129e-39
0.57794499 -0.19104861 0.73951405 2.8639093e-39
0.57826364 -0.1880798 0.73915154 2.8657058e-39
0.57889915 -0.18580291 0.73959363 2.8599577e-39
0.57979083 -0.1839398 0.73935694 2.9564693e-39
0.58091044 -0.18160678 0.73905802 3.1433801e-39
0.5823828 -0.18088759 0.74030173 3.0454321e-39
0.58340657 -0.17823124 0.73961288 3.0519047e-39
0.58439589 -0.17552705 0.73880845 3.1516478e-39
0.58587646 -0.17457625 0.73985946 2.9611426e-39
0.58654034 -0.17247087 0.73911512 3.1527254e-39
0.5882352 -0.17172848 0.7407065 2.8653471e-39
0.58771127 -0.17035271 0.73896718 3.1559596e-39
0.58904225 -0.16927412 0.73980629 3.0587305e-39
0.59010726 -0.16704054 0.73939437 3.0626807e-39
0.59109551 -0.16609186 0.73984528 3.1552407e-39
0.59050167 -0.16468345 0.73817885 3.1599112e-39
0.59225923 -0.16395365 0.73971558 3.0608857e-39
0.58116657 -0.34641707 0.74356812 2.8599577e-39
0.55796617 -0.3343308 0.74286103 2.8599577e-39
0.5563488 -0.33167842 0.74244404 2.0298159e-39
0.55647647 -0.32873803 0.74229366 1.845419e-39
0.55686879 -0.3254942 0.74260432 2.8599577e-39
0.55715644 -0.32279581 0.74265236 2.8599577e-39
0.55740237 -0.31992632 0.74236321 2.8599577e-39
0.5576486 -0.31705421 0.74207383 2.8599577e-39
0.55807126 -0.31396911 0.74273771 2.8599577e-39
0.55831778 -0.31109348 0.74244845 2.8599577e-39
0.55871403 -0.30739218 0.74256271 2.8599577e-39
0.55904889 -0.30440897 0.74274951 2.8599577e-39
0.55956626 -0.30132261 0.74237561 2.8599577e-39
0.56032443 -0.29803887 0.74241668 2.8599577e-39
0.56081569 -0.29529089 0.74184233 2.8599577e-39
0.56130052 -0.29497176 0.74359381 2.8599577e-39
0.5615502 -0.29237965 0.74214375 2.8599577e-39
0.56228566 -0.28946593 0.7424463 2.8599577e-39
0.56294262 -0.28650579 0.74283957 2.8599577e-39
0.56340981 -0.28372681 0.74229628 2.8599577e-39
0.56383485 -0.28139359 0.74296194 2.8599577e-39
0.56400633 -0.27996713 0.74276286 2.8599577e-39
0.60961908 -0.28010628 0.7413516 4.9816062e-39
0.56426376 -0.27782568 0.74246407 2.8599577e-39
0.56460738 -0.27496743 0.74206519 2.8599577e-39
0.5650624 -0.2718876 0.74269557 2.8599577e-39
0.56543267 -0.26903796 0.74226654 2.8599577e-39
0.56583679 -0.26592997 0.74295819 2.8599577e-39
0.56643844 -0.26243135 0.74226236 2.8599577e-39
0.56698704 -0.25966156 0.74162793 2.8599577e-39
0.56720406 -0.25874355 0.74253535 2.8599577e-39
0.56766433 -0.25642481 0.74316359 2.8599577e-39
0.56835204 -0.25295278 0.74237114 2.8599577e-39
0.56899118 -0.2497869 0.74240685 2.8599577e-39
0.56949288 -0.24731471 0.74260205 2.8599577e-39
0.56999499 -0.24484093 0.74279797 2.8599577e-39
0.57027167 -0.24344404 0.74248028 2.8599577e-39
0.57068723 -0.24134587 0.74200314 2.8599577e-39
0.57130313 -0.23832794 0.74245453 2.8599577e-39
0.57191932 -0.23530862 0.74290782 2.8599577e-39
0.57238895 -0.23245986 0.74237061 2.8599577e-39
0.57276857 -0.22956529 0.74193639 2.8599577e-39
0.57305682 -0.22845857 0.743922 2.8599577e-39
0.57326299 -0.22648498 0.74252909 2.8599577e-39
0.57369041 -0.22378446 0.74242741 2.8599577e-39
0.57425827 -0.22055429 0.74255252 2.8599577e-39
0.57482642 -0.21732223 0.74267673 2.8599577e-39
0.57527643 -0.21462286 0.74255019 2.8599577e-39
0.57569456 -0.21172416 0.74207449 2.8599577e-39
0.58942074 -0.21069351 0.74149692 2.7860868e-39
0.57622385 -0.20865087 0.74263185 2.8599577e-39
0.57652837 -0.20569898 0.74228609 2.8599577e-39
0.57702452 -0.20261082 0.74288017 2.8599577e-39
0.57732958 -0.19965419 0.7425344 2.8599577e-39
0.57763499 -0.19669439 0.74218816 2.8599577e-39
0.57813179 -0.19360331 0.74278414 2.8599577e-39
0.57846034 -0.19064724 0.74241233 2.8599577e-39
0.57914931 -0.18974124 0.74394733 2.8599577e-39
0.578789 -0.18845865 0.74204046 2.8599577e-39
0.57933527 -0.18737334 0.74296618 2.8599577e-39
0.57971841 -0.18494497 0.74253398 2.8599577e-39
0.58162099 -0.18293554 0.74116051 2.8599577e-39
0.58345985 -0.18012115 0.74141085 2.8599577e-39
0.58476686 -0.17866082 0.74226284 2.8599577e-39
0.58530396 -0.17729899 0.74166167 2.8599577e-39
0.58653623 -0.175413 0.74182922 2.8599577e-39
0.58769363 -0.17310004 0.74131054 2.8603164e-39
0.58908373 -0.17205572 0.74285239 2.8599577e-39
0.59024638 -0.16973464 0.74233419 2.8603164e-39
0.59163821 -0.16868946 0.74387836 2.8599577e-39
0.59207165 -0.16666935 0.74224317 2.8621129e-39
0.59355402 -0.16385627 0.7417649 2.8649869e-39
0.59432632 -0.16376254 0.74322897 2.8599577e-39
0.56139696 -0.33757854 0.74579149 2.8599577e-39
0.55784345 -0.33357483 0.74531746 2.8599577e-39
0.55903494 -0.33519125 0.74623311 2.8599577e-39
0.55669516 -0.33126029 0.7451219 2.3064098e-39
0.55691761 -0.32841057 0.74547666 1.6606606e-39
0.55724365 -0.32535803 0.74524909 2.8599577e-39
0.55765522 -0.32213131 0.74553752 2.8599577e-39
0.55793083 -0.3192859 0.7452153 2.8599577e-39
0.55835038 -0.31620666 0.74587798 2.8599577e-39
0.55859834 -0.31333995 0.74558866 2.8599577e-39
0.55884463 -0.31046939 0.74530125 2.8599577e-39
0.559129 -0.3077673 0.74535418 2.8599577e-39
0.55958521 -0.30455947 0.74559206 2.8599577e-39
0.56031626 -0.30166399 0.74589372 2.8599577e-39
0.56074643 -0.2986646 0.74481636 2.8599577e-39
0.56117064 -0.29808152 0.74605417 2.8599577e-39
0.56153876 -0.29602545 0.74562693 2.8599577e-39
0.56217825 -0.29245865 0.74546111 2.8599577e-39
0.56267536 -0.28956318 0.74546105 2.8599577e-39
0.56323195 -0.28655353 0.74597067 2.8599577e-39
0.563766 -0.2830601 0.74535298 2.8599577e-39
0.56421208 -0.27982783 0.74560553 2.8599577e-39
0.56455898 -0.27713954 0.74558914 2.8599577e-39
0.56490201 -0.2742874 0.74519312 2.8599577e-39
0.56535041 -0.27121136 0.74582994 2.8599577e-39
0.56573701 -0.26837674 0.74538445 2.8599577e-39
0.56628978 -0.26535437 0.74590009 2.8599577e-39
0.56663215 -0.26283273 0.74512178 2.8599577e-39
0.56700206 -0.26165307 0.74623418 2.8599577e-39
0.56691307 -0.26061743 0.74402928 2.8599577e-39
0.56735158 -0.25954971 0.74583292 2.8599577e-39
0.56781816 -0.2567412 0.74529719 2.8599577e-39
0.55446416 -0.25385213 0.7466948 5.1660003e-39
0.5684458 -0.25374904 0.74572933 2.8599577e-39
0.56891888 -0.2509352 0.74518728 2.8599577e-39
0.56954253 -0.24793607 0.74562681 2.8599577e-39
0.56989449 -0.24581854 0.74522412 2.8599577e-39
0.570324 -0.24382323 0.74550098 2.8599577e-39
0.57080507 -0.24142484 0.74533552 2.8599577e-39
0.57127106 -0.23910911 0.74595737 2.8599577e-39
0.5719015 -0.23558296 0.74523878 2.8599577e-39
0.57255876 -0.23258768 0.74564195 2.8599577e-39
0.57289028 -0.23044427 0.74526489 2.8599577e-39
0.57320905 -0.22882356 0.74605584 2.8599577e-39
0.5736481 -0.22595958 0.74555719 2.8599577e-39
0.57422286 -0.22274297 0.7456724 2.8599577e-39
0.57466263 -0.22005047 0.74555761 2.8599577e-39
0.57511157 -0.21735954 0.74543315 2.8599577e-39
0.57567918 -0.21413068 0.74555933 2.8599577e-39
0.57624716 -0.21089999 0.74568456 2.8599577e-39
0.57669741 -0.20820069 0.74555975 2.8599577e-39
0.57708859 -0.20528953 0.74511796 2.8599577e-39
0.5775975 -0.20221215 0.7456969 2.8599577e-39
0.57790232 -0.19926059 0.74535316 2.8599577e-39
0.57845742 -0.19619977 0.74587935 2.8599577e-39
0.57857633 -0.19337198 0.74459326 2.8599577e-39
0.5791651 -0.19319656 0.74623549 2.8599577e-39
0.57891995 -0.1911945 0.74420577 2.8599577e-39
0.57962346 -0.19029467 0.74572051 2.8599577e-39
0.58037651 -0.18730271 0.74602634 2.8599577e-39
0.58083642 -0.18439247 0.7455107 2.8599577e-39
0.58129704 -0.1814775 0.74499416 2.8599577e-39
0.58193719 -0.17920604 0.74543011 2.8599577e-39
0.58275533 -0.17758243 0.74681783 2.8599577e-39
0.58298659 -0.17612191 0.74655998 2.8599577e-39
0.59109318 -0.1700644 0.74447966 2.8599577e-39
0.59322912 -0.16652688 0.74443489 2.8599577e-39
0.59427375 -0.16574256 0.74559402 2.8599577e-39
0.59548318 -0.16362214 0.74542212 2.8599577e-39
0.5966953 -0.16149735 0.74525046 2.8599577e-39
0.59746599 -0.16140483 0.74671263 2.8599577e-39
0.56483203 -0.34083027 0.74872565 2.8599577e-39
0.56043786 -0.33627063 0.74920213 2.8599577e-39
0.5930658 -0.33882493 0.74921101 4.7968464e-39
0.5586524 -0.33384886 0.7478292 2.8599577e-39
0.59612226 -0.33539832 0.74817359 5.1656275e-39
0.55708367 -0.33090031 0.74850625 2.8599577e-39
0.55827105 -0.33251065 0.74941981 2.8599577e-39
0.55723965 -0.32874376 0.74832451 1.2918697e-39
0.56155211 -0.32956713 0.74950773 4.7972066e-39
0.55764997 -0.32552633 0.74861163 2.4911654e-39
0.55781257 -0.32308668 0.74765706 2.8599577e-39
0.55811274 -0.32262531 0.74960363 2.8599577e-39
0.55826265 -0.31964523 0.74805176 2.8599577e-39
0.55868655 -0.3169634 0.74893755 2.8599577e-39
0.55897391 -0.31412792 0.74860406 2.8599577e-39
0.55930829 -0.31056389 0.74821591 2.8599577e-39
0.559744 -0.30749983 0.74885756 2.8599577e-39
0.56026477 -0.30443257 0.74848384 2.8599577e-39
0.56082964 -0.3018074 0.74874896 2.8599577e-39
0.56104714 -0.30042624 0.74849743 2.8599577e-39
0.56137371 -0.2983523 0.74811971 2.8599577e-39
0.56192827 -0.29535323 0.74862611 2.8599577e-39
0.56236774 -0.29273692 0.74850154 2.8599577e-39
0.56292003 -0.28957927 0.74863052 2.8599577e-39
0.56335771 -0.28680074 0.74812609 2.8599577e-39
0.59884822 -0.28612739 0.74787277 4.5202525e-39
0.56382912 -0.28409663 0.74834776 2.8599577e-39
0.56408417 -0.28284699 0.74958432 2.8599577e-39
0.56424195 -0.28094923 0.74825543 2.8599577e-39
0.56469345 -0.27788416 0.7488848 2.8599577e-39
0.56508267 -0.27506524 0.74843782 2.8599577e-39
0.56565088 -0.27144128 0.74835902 2.8599577e-39
0.61258519 -0.27078277 0.74887091 6.0875768e-39
0.56612206 -0.26852006 0.74839228 2.8599577e-39
0.61248922 -0.26836869 0.7489723 6.1797697e-39
0.56667382 -0.26550415 0.74890852 2.8599577e-39
0.61166602 -0.26560467 0.74984169 5.9953854e-39
0.5672071 -0.26198566 0.74829841 2.8599577e-39
0.56783271 -0.25900346 0.74872994 2.8599577e-39
0.56829882 -0.25619996 0.74819767 2.8599577e-39
0.56892556 -0.25321332 0.74863088 2.8599577e-39
0.56954944 -0.25005582 0.74868411 2.8599577e-39
0.56986141 -0.24758594 0.74756414 2.8599577e-39
0.57021147 -0.24725221 0.7494601 2.8599577e-39
0.62468338 -0.24661697 0.74919003 5.1660003e-39
0.57052284 -0.24477921 0.7483415 2.8599577e-39
0.5693683 -0.24138553 0.74768329 3.2291129e-39
0.57114482 -0.2416098 0.74840009 2.8599577e-39
0.62791848 -0.24237694 0.74975193 4.9812405e-39
0.57182902 -0.23863962 0.74877 2.8599577e-39
0.57229757 -0.23580797 0.7482388 2.8599577e-39
0.57286578 -0.23354186 0.74874288 2.8599577e-39
0.57312816 -0.23213573 0.74844605 2.8599577e-39
0.57388866 -0.22995442 0.74873245 2.8599577e-39
0.57432902 -0.22709665 0.74823517 2.8599577e-39
0.62173951 -0.22700156 0.74844104 6.6410897e-39
0.57461745 -0.22416712 0.74790943 2.8599577e-39
0.55055046 -0.22008134 0.74705589 2.8599591e-39
0.57544988 -0.22134818 0.74888235 2.8599577e-39
0.57600009 -0.22026664 0.74979091 2.8599577e-39
0.57560843 -0.21748717 0.74793935 2.8599577e-39
0.57621711 -0.21806663 0.74954712 2.8599577e-39
0.57589793 -0.21454896 0.74761301 2.8599577e-39
0.57635683 -0.21444869 0.7486257 2.8599577e-39
0.62511879 -0.21516506 0.74722528 6.8251111e-39
0.57662368 -0.21200955 0.74832565 2.8599577e-39
0.62325299 -0.21284762 0.74916029 6.0879286e-39
0.57715935 -0.20851374 0.74848866 2.8599577e-39
0.61062515 -0.20861551 0.74804866 6.8247523e-39
0.57780397 -0.20549989 0.7489109 2.8599577e-39
0.57815558 -0.20257609 0.74851656 2.8599577e-39
0.5784722 -0.1996347 0.74816155 2.8599577e-39
0.57900035 -0.19810347 0.74871725 3.0443545e-39
0.57968044 -0.19586332 0.74910235 2.8599577e-39
0.58013248 -0.19296682 0.7485972 2.9521561e-39
0.58053887 -0.19004825 0.74814308 2.9521561e-39
0.58125746 -0.18704692 0.74848843 2.8599577e-39
0.58211577 -0.18697713 0.74982357 3.0443545e-39
0.58171749 -0.18414004 0.74797529 2.8599577e-39
0.58247131 -0.18403304 0.74942851 3.0443545e-39
0.58250278 -0.18115684 0.74824715 2.9521561e-39
0.58328629 -0.17817014 0.7485224 2.8599591e-39
0.58406258 -0.17517748 0.74880695 2.9521561e-39
0.5845415 -0.17245723 0.74865794 2.9521575e-39
0.58914804 -0.16751724 0.74892068 2.8599577e-39
0.59100378 -0.166232 0.74917525 2.8599577e-39
0.59286469 -0.16494316 0.74943048 2.8599577e-39
0.59537911 -0.1630798 0.7489816 2.8599577e-39
0.59797001 -0.16261984 0.74960709 3.874502e-39
0.59903067 -0.16139492 0.74846005 3.874502e-39
0.56827122 -0.34408599 0.75166351 2.8599577e-39
0.56173313 -0.33761689 0.75114107 2.8599577e-39
0.56000525 -0.33453384 0.75122768 2.3989683e-39
0.56111628 -0.33536881 0.75299186 1.6606634e-39
0.55749637 -0.33050197 0.750319 1.6606634e-39
0.5591892 -0.3313548 0.75178897 1.6606634e-39
0.55757266 -0.32829633 0.75023037 1.2918683e-39
0.55895686 -0.32819796 0.75205719 1.6606634e-39
0.55775481 -0.32615811 0.75001907 1.7528576e-39
0.55886662 -0.3251344 0.75216103 2.7677606e-39
0.55902076 -0.32222641 0.75198293 2.8599577e-39
0.59651506 -0.3234694 0.75232005 5.1660003e-39
0.55924332 -0.3193596 0.75172603 2.8599577e-39
0.59965229 -0.32002753 0.75122035 5.1659989e-39
0.559466 -0.3164905 0.75146902 2.8599577e-39
0.60290003 -0.31661177 0.75001842 5.0737864e-39
0.55968899 -0.31361908 0.75121158 2.8599577e-39
0.55991209 -0.3107453 0.75095403 2.8599577e-39
0.56047964 -0.3077668 0.75144255 2.8599577e-39
0.5612213 -0.30684257 0.75287122 2.8599577e-39
0.56075323 -0.30491909 0.75112724 2.8599577e-39
0.5614295 -0.30470946 0.75263214 2.8599577e-39
0.60396904 -0.30566514 0.75115973 5.0737977e-39
0.56096154 -0.30278331 0.75088727 2.8599577e-39
0.56150508 -0.30169478 0.7517845 2.8599577e-39
0.56169558 -0.29875264 0.75095594 2.8599577e-39
0.56233358 -0.29544744 0.75159413 2.8599577e-39
0.56296939 -0.29250112 0.7520057 2.8599577e-39
0.60505831 -0.29160118 0.7522794 5.1660017e-39
0.56340277 -0.28937039 0.75173736 2.8599577e-39
0.56367749 -0.28645933 0.75081307 2.8599577e-39
0.56401086 -0.2852546 0.75195479 3.5053453e-39
0.56469119 -0.28308177 0.75231779 3.0443559e-39
0.5650003 -0.28023106 0.75196457 2.9521575e-39
0.56532252 -0.27738404 0.75159663 2.9521575e-39
0.60777664 -0.27757725 0.75167269 5.2581973e-39
0.5656451 -0.27453372 0.75122815 2.9521575e-39
0.60767245 -0.27438828 0.75178301 5.2581973e-39
0.56599587 -0.27185562 0.75120848 2.9521561e-39
0.56712383 -0.27071524 0.75296658 3.136553e-39
0.60756838 -0.27120039 0.7518934 5.2581973e-39
0.56650549 -0.26866359 0.75138915 2.8599577e-39
0.56731647 -0.26854739 0.75274777 3.136553e-39
0.60746431 -0.2680136 0.75200367 5.2581973e-39
0.5668962 -0.26583958 0.75094384 2.8599577e-39
0.56757337 -0.26565459 0.75245601 3.136553e-39
0.6070233 -0.26544797 0.75247121 5.2581973e-39
0.56755161 -0.26288158 0.75133926 2.8599591e-39
0.61049998 -0.26268387 0.75107318 5.442583e-39
0.56796581 -0.26022717 0.75124884 2.8599577e-39
0.59510124 -0.25873575 0.75015998 4.7972094e-39
0.60933793 -0.25977319 0.7523005 5.2581973e-39
0.56880778 -0.2567668 0.75181502 2.8599577e-39
0.61283135 -0.25698018 0.75089884 5.5347772e-39
0.56930238 -0.25374308 0.75140584 2.8599577e-39
0.611274 -0.25310931 0.75253773 5.2581973e-39
0.56973028 -0.25132307 0.75114894 2.8599577e-39
0.57017946 -0.24977139 0.75178266 2.8599577e-39
0.57064474 -0.24696006 0.75125611 2.8599577e-39
0.61337447 -0.2464963 0.75260913 5.1663618e-39
0.57130039 -0.24439292 0.75188398 2.8599577e-39
0.57179385 -0.24118035 0.75109839 2.8599577e-39
0.57247746 -0.23821475 0.75146943 2.8599577e-39
0.61800849 -0.2370023 0.7500416 5.5351261e-39
0.57282859 -0.23609476 0.75107354 2.8599577e-39
0.57329273 -0.23497458 0.75207186 2.8599577e-39
0.61755836 -0.23522605 0.75051188 5.5347716e-39
0.57377678 -0.23248343 0.75114703 2.8599577e-39
0.61672139 -0.23249817 0.75138623 5.3503888e-39
0.57493895 -0.22931497 0.75174373 2.8599577e-39
0.61525273 -0.22951116 0.75292063 5.2581973e-39
0.57545263 -0.22700191 0.75116712 2.8599577e-39
0.57606739 -0.22594994 0.75200009 2.8599577e-39
0.57563883 -0.22392932 0.7501967 2.8599577e-39
0.57631862 -0.22377107 0.75171894 2.8599577e-39
0.61897242 -0.22349146 0.75132138 5.4425802e-39
0.57694733 -0.22076491 0.75215596 2.8599577e-39
0.57723683 -0.21783477 0.75183237 2.8599577e-39
0.57752663 -0.21490161 0.75150865 2.8599577e-39
0.57751638 -0.21166976 0.75110441 5.163747e-39
0.62000293 -0.21000908 0.75253105 5.1660017e-39
0.57810718 -0.20902617 0.75086004 2.8599577e-39
0.5787248 -0.20600507 0.75131285 2.8599577e-39
0.57936406 -0.20584205 0.75288123 2.8599577e-39
0.57892609 -0.2037904 0.75108838 2.8599577e-39
0.57944179 -0.20269813 0.75203484 2.8599577e-39
0.62291771 -0.20118076 0.75179332 5.1660017e-39
0.5795908 -0.20001964 0.7514888 2.8599577e-39
0.58014053 -0.19735838 0.7512576 2.8599577e-39
0.58127344 -0.19371831 0.75167227 2.8599577e-39
0.58182389 -0.19057767 0.75090903 2.8599605e-39
0.58239335 -0.18976295 0.75180018 2.8599577e-39
0.6218164 -0.1896773 0.75293136 2.065182e-38
0.58325732 -0.18681933 0.75198424 2.8599577e-39
0.58374417 -0.18392472 0.75144643 2.9521561e-39
0.58416933 -0.18100287 0.75097668 3.0443545e-39
0.58443713 -0.17879057 0.75068069 3.0443545e-39
0.5855785 -0.17773585 0.75208449 2.9521575e-39
0.58577913 -0.17504513 0.75148356 3.0443545e-39
0.58642417 -0.17192444 0.75145823 3.0443545e-39
0.58712739 -0.16954771 0.75114131 2.9521561e-39
0.58845162 -0.16848272 0.75197029 2.8599577e-39
0.59001279 -0.1672813 0.75140208 2.8599577e-39
0.59200048 -0.16604063 0.75151515 3.3213114e-39
0.59533656 -0.16566196 0.75245577 3.874502e-39
0.59826183 -0.165318 0.75271577 3.874502e-39
0.59346437 -0.16479532 0.75106335 3.874502e-39
0.59558606 -0.16436142 0.7510438 3.874502e-39
0.59851772 -0.16401388 0.75130105 3.874502e-39
0.60146284 -0.16366382 0.75155854 3.874502e-39
0.60442185 -0.16331276 0.75181794 3.874502e-39
0.56473958 -0.34058186 0.75453818 2.2142127e-39
0.56307542 -0.33790249 0.75416267 1.9372587e-39
0.56456703 -0.33787072 0.75587028 1.6606634e-39
0.58555979 -0.33709481 0.75513732 4.9816034e-39
0.56099951 -0.3337881 0.75312579 1.6606634e-39
0.56269467 -0.33464256 0.75459778 1.6606634e-39
0.58286685 -0.33529109 0.75582469 5.0738005e-39
0.58654779 -0.33431351 0.75519228 5.0738033e-39
0.56082451 -0.33141828 0.75332671 1.6606634e-39
0.56246066 -0.33148175 0.75486505 1.8450617e-39
0.584831 -0.33280432 0.75593543 5.0738019e-39
0.5871343 -0.33128288 0.75568354 5.1660031e-39
0.59081268 -0.33058977 0.75394648 5.1660003e-39
0.56059146 -0.32826081 0.75359428 2.2142127e-39
0.56222677 -0.32832366 0.75513208 3.3213114e-39
0.58965999 -0.32834399 0.75519961 5.1660031e-39
0.59365499 -0.32704061 0.75313574 5.1660003e-39
0.56035852 -0.32510602 0.75386178 3.5979053e-39
0.56199312 -0.32516834 0.75539887 3.5979053e-39
0.58909702 -0.32646227 0.75581175 5.1660031e-39
0.59191525 -0.32444799 0.7550205 5.1660031e-39
0.56013125 -0.32195738 0.75412273 3.2287514e-39
0.56121492 -0.32199508 0.75515318 3.5979053e-39
0.59134889 -0.32256621 0.75563401 5.1660031e-39
0.5604865 -0.31871185 0.75447273 2.8599577e-39
0.56104016 -0.31963241 0.75535321 3.5979053e-39
0.59361011 -0.31865376 0.75545561 5.1660031e-39
0.59417993 -0.32053572 0.75484049 5.1660031e-39
0.56046855 -0.31615832 0.75373548 2.8599577e-39
0.56113565 -0.31593722 0.7552439 2.8599577e-39
0.59645414 -0.31660694 0.75465983 5.2581945e-39
0.5606916 -0.31328955 0.75347936 2.8599577e-39
0.56135887 -0.31307024 0.75498855 2.8599577e-39
0.59561765 -0.31379893 0.75555956 5.1660031e-39
0.59881622 -0.31270641 0.75439453 5.4425844e-39
0.56091499 -0.31041846 0.75322294 2.8599577e-39
0.56158233 -0.31020093 0.75473297 2.8599577e-39
0.59521914 -0.31124848 0.75598806 5.1663618e-39
0.59861135 -0.31026015 0.75461411 5.3503902e-39
0.56182694 -0.30734229 0.75445259 2.8599577e-39
0.59833837 -0.30700091 0.75490665 5.2581959e-39
0.56244206 -0.3043955 0.75488567 2.8599577e-39
0.5981338 -0.30455846 0.75512582 5.1663618e-39
0.60213375 -0.30308497 0.75311923 5.1660017e-39
0.56272024 -0.30155152 0.7545681 2.8599577e-39
0.5979293 -0.30211782 0.75534499 5.1663618e-39
0.60134214 -0.30108958 0.75396448 5.4425844e-39
0.56299865 -0.29870468 0.75425029 2.8599577e-39
0.59767127 -0.29887411 0.75562143 5.1660017e-39
0.60113585 -0.29864126 0.75418472 5.2581959e-39
0.56327736 -0.29585493 0.75393194 2.8599577e-39
0.56463337 -0.29499549 0.75579494 3.5053453e-39
0.5976553 -0.29576504 0.7556386 5.1660003e-39
0.60086095 -0.29537934 0.7544781 5.1663618e-39
0.56382412 -0.29361451 0.75444549 2.8599577e-39
0.56463623 -0.29268304 0.75503522 3.5053453e-39
0.59770548 -0.29269201 0.75558484 5.1660003e-39
0.60066593 -0.29216307 0.75468642 5.1660017e-39
0.56538022 -0.28927812 0.75466305 3.5053453e-39
0.59775561 -0.2896184 0.75553107 5.1660003e-39
0.6007148 -0.28907847 0.75463426 5.1660003e-39
0.60388082 -0.28941441 0.75353205 5.3503902e-39
0.56578654 -0.2861174 0.75403059 3.5053453e-39
0.56718403 -0.28530228 0.75517219 3.5053467e-39
0.59778976 -0.2865358 0.75549448 5.1660003e-39
0.60074401 -0.28598303 0.75460315 5.1660003e-39
0.603737 -0.28699744 0.75368512 5.2581959e-39
0.5661639 -0.28304222 0.75405675 3.5053467e-39
0.5672127 -0.28305295 0.75513971 3.5053467e-39
0.59769851 -0.28338718 0.75559223 5.1660017e-39
0.60064667 -0.28282151 0.75470698 5.1660017e-39
0.60367346 -0.28384328 0.75375271 5.1660017e-39
0.56629092 -0.28009155 0.75391245 3.136553e-39
0.56725645 -0.28005657 0.75509018 3.3209498e-39
0.59758162 -0.28022614 0.75571752 5.1660017e-39
0.60055822 -0.28044295 0.75480145 5.1660017e-39
0.60355449 -0.28066128 0.75387919 5.1660017e-39
0.56654692 -0.27720949 0.75362182 3.136553e-39
0.56746387 -0.27714828 0.75485539 3.136553e-39
0.5974648 -0.27706641 0.7558428 5.1660017e-39
0.60046983 -0.27806523 0.75489581 5.1660017e-39
0.60343575 -0.2774806 0.75400561 5.1660017e-39
0.56680316 -0.27432483 0.75333071 3.136553e-39
0.56817895 -0.27423379 0.75518203 3.136553e-39
0.59735924 -0.27391362 0.75595582 5.1660003e-39
0.60035199 -0.27489597 0.75502157 5.1660017e-39
0.60331678 -0.27430114 0.75413203 5.1660017e-39
0.56699556 -0.27215964 0.75311226 3.136553e-39
0.56843597 -0.27134722 0.75489163 3.136553e-39
0.59732509 -0.27157247 0.75599241 5.1660003e-39
0.60023427 -0.27172801 0.75514734 5.1660017e-39
0.60319805 -0.27112296 0.75425839 5.1660017e-39
0.56869328 -0.26845801 0.75460106 3.136553e-39
0.60016382 -0.26858476 0.75522256 5.1660003e-39
0.60307938 -0.26794612 0.75438476 5.1660017e-39
0.56891334 -0.26554665 0.75435251 3.0443545e-39
0.60013103 -0.26546082 0.75525749 5.1660003e-39
0.60301989 -0.26557875 0.75444794 5.1660003e-39
0.56908488 -0.26260796 0.75415874 3.0443531e-39
0.60148144 -0.26275134 0.75495291 5.1659989e-39
0.60564494 -0.26165307 0.75393218 5.1660003e-39
0.60625583 -0.26351088 0.75328457 5.2581973e-39
0.56926602 -0.25967228 0.75395405 2.9521561e-39
0.57053912 -0.25953275 0.7559256 3.0443531e-39
0.59986269 -0.25911653 0.75554407 5.1659989e-39
0.60264957 -0.25994572 0.75484192 5.1659989e-39
0.60547245 -0.25922677 0.75411499 5.1660003e-39
0.56963605 -0.25699559 0.75391531 2.8599577e-39
0.57070613 -0.25658923 0.75573802 3.0443531e-39
0.59962517 -0.25589737 0.75579762 5.1659989e-39
0.60241026 -0.25671676 0.75509655 5.1659989e-39
0.60524255 -0.25599375 0.75435865 5.1660003e-39
0.60836673 -0.25696224 0.75332612 5.1660017e-39
0.57061166 -0.25377035 0.75470936 2.8599577e-39
0.59944713 -0.25348467 0.7559877 5.1659989e-39
0.60217118 -0.25349042 0.75535095 5.1659989e-39
0.60507029 -0.25357056 0.75454128 5.1660003e-39
0.60799396 -0.25365433 0.75371981 5.1660003e-39
0.57094312 -0.25090259 0.7543363 2.8599577e-39
0.60193717 -0.25026894 0.75559986 5.1660003e-39
0.6048981 -0.25114894 0.75472379 5.1660003e-39
0.60776258 -0.25041556 0.75396425 5.1660003e-39
0.61070287 -0.25048947 0.75313872 5.1660003e-39
0.571275 -0.24803141 0.75396287 2.8599577e-39
0.60176647 -0.24785666 0.75578141 5.1660003e-39
0.60464144 -0.2479098 0.75499582 5.1660003e-39
0.60747194 -0.24715243 0.75427115 5.1660003e-39
0.61052799 -0.24805444 0.75332272 5.1660003e-39
0.57234806 -0.24501607 0.75502908 2.8599577e-39
0.60410362 -0.2445462 0.75556588 5.1660003e-39
0.6070503 -0.24461509 0.75471652 5.1660003e-39
0.61001587 -0.2446849 0.75386161 5.1660003e-39
0.61284578 -0.24389923 0.75316346 5.1660003e-39
0.57253736 -0.24181409 0.75424886 2.8599577e-39
0.57313466 -0.24135043 0.75528276 2.8599577e-39
0.60659397 -0.24206606 0.75519842 5.1660003e-39
0.60940266 -0.24127583 0.75450689 5.1660003e-39
0.61238217 -0.24133457 0.75364959 5.1660003e-39
0.57279158 -0.23863785 0.7533952 2.8599577e-39
0.57363904 -0.23794186 0.75471789 3.0447147e-39
0.6058799 -0.23784553 0.75595254 5.1660003e-39
0.60790831 -0.23842345 0.75532526 5.1660003e-39
0.61176515 -0.23792155 0.75429654 5.1660003e-39
0.61207354 -0.2396272 0.75397319 5.1660003e-39
0.57451838 -0.23491773 0.75487 3.136553e-39
0.60834503 -0.23533203 0.75561988 5.1660003e-39
0.61130321 -0.23536661 0.75478077 5.1660003e-39
0.5749619 -0.23207857 0.75437421 3.3213114e-39
0.57657498 -0.23134388 0.75598043 3.2291115e-39
0.60807967 -0.23365332 0.75589907 5.1660003e-39
0.61069834 -0.2319701 0.75541502 5.1660003e-39
0.57554895 -0.2294752 0.75409722 2.8599577e-39
0.57667255 -0.2291051 0.75587201 3.874502e-39
0.61029196 -0.22944669 0.75584114 5.1660017e-39
0.57671106 -0.22630759 0.75469452 2.8599577e-39
0.61363864 -0.22647661 0.75460684 5.2581973e-39
0.57730448 -0.22352007 0.75403398 2.8599577e-39
0.61256802 -0.22289205 0.7557252 5.2581959e-39
0.57821494 -0.22023511 0.75491494 2.8599577e-39
0.61674482 -0.2202179 0.75364 5.2581973e-39
0.57859164 -0.21752548 0.75487506 2.8599577e-39
0.6148532 -0.21631047 0.75560904 2.0375238e-38
0.61566418 -0.21820776 0.75476491 5.2581973e-39
0.57854486 -0.21467283 0.75379157 2.8599577e-39
0.57919812 -0.21451041 0.75533783 2.8599577e-39
0.61460149 -0.21385202 0.75587094 1.9544029e-38
0.57882792 -0.21173635 0.75347698 2.8599577e-39
0.57946599 -0.21156946 0.75504136 2.8599577e-39
0.57941496 -0.20870817 0.75396186 2.8599577e-39
0.61778182 -0.20757945 0.75483471 5.1660031e-39
0.58023721 -0.20537956 0.75494403 2.8599577e-39
0.61767226 -0.20517141 0.75494832 5.1660031e-39
0.58058965 -0.20264965 0.75493246 2.8599577e-39
0.61752617 -0.20196193 0.75509983 5.1660031e-39
0.58085859 -0.19969854 0.75463533 2.8599577e-39
0.61741662 -0.1995558 0.7552135 5.1660031e-39
0.62104648 -0.19891022 0.75372702 5.1660031e-39
0.58128923 -0.19680692 0.75415933 2.8599577e-39
0.61737537 -0.19717538 0.7552563 1.180112e-38
0.62097275 -0.19729994 0.75380319 5.1660031e-39
0.62105066 -0.19574454 0.75372267 2.019012e-38
0.5824061 -0.19358592 0.75481957 2.9521561e-39
0.61449152 -0.1925859 0.7559855 1.3727041e-38
0.61769116 -0.19413495 0.75492871 1.8436236e-38
0.62133753 -0.19347098 0.75342619 2.0282676e-38
0.58301234 -0.19094141 0.75453001 2.8599577e-39
0.61482388 -0.19034532 0.75563955 1.354193e-38
0.61797547 -0.19186948 0.75463384 1.8620988e-38
0.61816502 -0.19035786 0.75443715 1.8805741e-38
0.62162477 -0.19119553 0.75312936 2.0558904e-38
0.58392018 -0.18802013 0.75466657 2.8599605e-39
0.61526757 -0.18735421 0.75517774 1.2711086e-38
0.61844981 -0.18808857 0.75414181 1.9174885e-38
0.58444011 -0.18514295 0.75409555 2.8599577e-39
0.58514929 -0.18502074 0.75558692 3.136553e-39
0.61557388 -0.18431138 0.75485885 1.1972798e-38
0.61887777 -0.18507606 0.75369799 1.9913173e-38
0.58486414 -0.1829941 0.75362939 2.8599577e-39
0.58545709 -0.18148287 0.75411403 2.8599605e-39
0.61566132 -0.18119116 0.75476789 1.5021397e-38
0.61926901 -0.18204677 0.75329232 1.9175978e-38
0.58673304 -0.17849189 0.75498772 2.9521575e-39
0.61574876 -0.17807004 0.75467682 1.4197822e-38
0.61938977 -0.17892346 0.75316703 1.6042449e-38
0.58738577 -0.17487584 0.75427401 2.9521575e-39
0.61583626 -0.17494799 0.75458574 7.3779513e-39
0.58739024 -0.17274871 0.75313264 3.0443545e-39
0.5886932 -0.1718872 0.75511754 3.136553e-39
0.61590183 -0.1726059 0.7545175 5.0738033e-39
0.58941782 -0.16905037 0.75432849 3.5053467e-39
0.59230429 -0.16911142 0.75535613 4.1510973e-39
0.59527254 -0.16899759 0.75593066 4.2432943e-39
0.5994612 -0.16812779 0.75597268 4.0588974e-39
0.61235505 -0.16944975 0.75594771 3.3209568e-39
0.5921756 -0.1672996 0.75360316 3.874502e-39
0.59544939 -0.16722183 0.75422794 3.8745034e-39
0.59842503 -0.16666687 0.75424659 3.8745034e-39
0.60131162 -0.16653953 0.75475407 3.8745034e-39
0.60382909 -0.16637385 0.75510126 3.8745034e-39
0.60631758 -0.16619568 0.75549036 3.874502e-39
0.6098339 -0.16523799 0.75518882 3.874502e-39
0.61242002 -0.16711646 0.75587982 2.3986166e-39
0.60496593 -0.16471142 0.75351644 3.874502e-39
0.60739607 -0.16497429 0.75435126 3.874502e-39
0.5663318 -0.34212267 0.75613642 2.9521561e-39
0.56817383 -0.34232041 0.75745356 3.0436161e-39
0.570265 -0.34268087 0.75849479 1.9376216e-39
0.53675085 -0.34193271 0.75626504 3.8737411e-39
0.56616747 -0.34050679 0.75632244 2.306407e-39
0.56829607 -0.34013751 0.75731599 4.795696e-39
0.5708822 -0.34034249 0.75855708 2.398604e-39
0.56605542 -0.33817273 0.75644916 2.2142183e-39
0.56844169 -0.33721423 0.75715214 2.8595821e-39
0.57125902 -0.33770549 0.75851202 5.0726472e-39
0.58200473 -0.33627647 0.75677228 3.8745034e-39
0.56504381 -0.33483553 0.75646281 2.0294599e-39
0.56840795 -0.33417386 0.75719053 2.3064182e-39
0.57141471 -0.3347826 0.75833803 3.3205589e-39
0.58259195 -0.33358866 0.75612694 5.0738019e-39
0.56477666 -0.33165246 0.75676554 3.0443587e-39
0.56850189 -0.33135727 0.75746173 3.13656e-39
0.5715791 -0.33186352 0.75815439 2.3064126e-39
0.5739103 -0.33008987 0.75894135 2.2142169e-39
0.57995284 -0.33182421 0.75676912 4.9816048e-39
0.58297163 -0.33105907 0.75646573 5.0738019e-39
0.56386256 -0.3283866 0.75667024 3.5979053e-39
0.56576496 -0.32847637 0.75753278 4.6124496e-39
0.56825036 -0.32868257 0.75774437 4.3354983e-39
0.57158172 -0.32884067 0.75815177 3.5979123e-39
0.57400632 -0.32787833 0.75883478 3.5979095e-39
0.57695389 -0.32907474 0.75782251 4.4280541e-39
0.58019477 -0.32845423 0.75725746 5.0738019e-39
0.58414078 -0.32854778 0.75669146 5.0738019e-39
0.58652383 -0.32860398 0.75634968 5.0738019e-39
0.5636282 -0.32523066 0.75693649 3.5979053e-39
0.56580693 -0.32563552 0.75786221 4.7968464e-39
0.56850839 -0.32485947 0.75820684 4.7968464e-39
0.57137454 -0.32568675 0.75838339 4.7050095e-39
0.57418084 -0.32495764 0.75864077 4.9812447e-39
0.57775819 -0.3254512 0.75806332 5.0738019e-39
0.58135802 -0.32594845 0.75748312 5.0738019e-39
0.58358967 -0.3251498 0.75729495 5.0738019e-39
0.58610773 -0.32604906 0.75680369 5.0738019e-39
0.58853513 -0.32458425 0.75642276 5.1660031e-39
0.56284916 -0.32205683 0.75669014 3.5979053e-39
0.56550771 -0.32243848 0.75820017 4.7972066e-39
0.56828231 -0.32245648 0.75846082 4.7972066e-39
0.5710699 -0.32247469 0.75872374 4.7972066e-39
0.57597411 -0.32163554 0.75890732 5.0738019e-39
0.57735193 -0.32292092 0.75851238 5.0738019e-39
0.58081138 -0.32256338 0.758084 5.0738019e-39
0.58317709 -0.32260543 0.75774682 5.0738019e-39
0.58636069 -0.32266864 0.75728279 5.0738033e-39
0.56261539 -0.31890643 0.7569561 3.5979053e-39
0.56520975 -0.31924546 0.75853682 4.4284142e-39
0.56866676 -0.31996956 0.75878215 4.7972066e-39
0.57818317 -0.32083362 0.75872135 5.0738019e-39
0.5802635 -0.31918344 0.75868618 5.0738019e-39
0.58346444 -0.31951198 0.75818604 5.0738019e-39
0.58672935 -0.32012585 0.75763446 5.0738019e-39
0.59050149 -0.31975085 0.75655204 5.1660031e-39
0.56267375 -0.31578088 0.75745535 3.4131483e-39
0.56500256 -0.31686279 0.7587707 4.1514588e-39
0.5678308 -0.3176567 0.758968 4.7972066e-39
0.58332998 -0.31627271 0.75870937 5.0738019e-39
0.5869689 -0.31674057 0.75812566 5.0738019e-39
0.58937526 -0.31600928 0.75777209 5.1660031e-39
0.59304142 -0.31677556 0.75606948 5.1660031e-39
0.56270182 -0.31351483 0.75753623 3.2291143e-39
0.5864104 -0.31334728 0.7587328 5.0738019e-39
0.58880317 -0.31336993 0.7583918 5.0738019e-39
0.59219742 -0.31396958 0.75698042 5.1660031e-39
0.56261474 -0.31028348 0.75718272 2.8599577e-39
0.5886879 -0.3110007 0.75851667 5.1660003e-39
0.5917201 -0.31061172 0.7574957 5.1663618e-39
0.59508383 -0.30962479 0.75613356 5.1663618e-39
0.56319267 -0.30693156 0.75743055 2.9521589e-39
0.58872581 -0.30795336 0.75847566 5.1660003e-39
0.59162319 -0.30747652 0.75760031 5.1660003e-39
0.59488124 -0.30719078 0.75635147 5.1663618e-39
0.56345308 -0.3040821 0.75713539 2.8599577e-39
0.5643065 -0.30398068 0.7584281 3.5053453e-39
0.58877206 -0.30491033 0.75842559 5.1660003e-39
0.59167242 -0.30442518 0.75754702 5.1660003e-39
0.59464145 -0.30396485 0.75660944 5.1660017e-39
0.56373143 -0.30124068 0.75681925 2.8599577e-39
0.56511754 -0.30100158 0.75826389 3.5053453e-39
0.58882093 -0.30186835 0.75837266 5.1660003e-39
0.59172177 -0.30137333 0.75749385 5.1660003e-39
0.59464145 -0.30087513 0.75660938 5.1660003e-39
0.56399602 -0.29914039 0.75651878 3.5053453e-39
0.56538808 -0.29833189 0.75765657 3.5053453e-39
0.58886981 -0.29882586 0.75831962 5.1660003e-39
0.59177113 -0.29832101 0.75744057 5.1660003e-39
0.59469122 -0.29781285 0.75655591 5.1660003e-39
0.56577152 -0.29584482 0.75722319 3.5053453e-39
0.58891881 -0.29578286 0.75826657 5.1660003e-39
0.59182054 -0.29526815 0.75738728 5.1660003e-39
0.59472847 -0.29551578 0.75651586 5.1660003e-39
0.5600974 -0.29209909 0.75875396 7.1116892e-39
0.56632447 -0.29317182 0.7568996 3.5053453e-39
0.56780338 -0.29273185 0.75824648 3.5053453e-39
0.58896774 -0.29273936 0.75821364 5.1660003e-39
0.59186983 -0.29221472 0.75733411 5.1660003e-39
0.59476578 -0.29321843 0.75647569 5.1660003e-39
0.56632841 -0.29085708 0.75614023 3.5053453e-39
0.56838459 -0.28929907 0.75770074 3.5053453e-39
0.5861659 -0.28947914 0.75899863 5.1660003e-39
0.58901662 -0.28969526 0.75816059 5.1660003e-39
0.59191918 -0.28916079 0.75728083 5.1660003e-39
0.59481555 -0.29015484 0.75642216 5.1660003e-39
0.5686568 -0.28601757 0.75690961 3.5053453e-39
0.57023686 -0.28603768 0.75852621 3.5053453e-39
0.57931489 -0.28551155 0.75769728 5.0738047e-39
0.58624429 -0.28722563 0.7589134 5.0738019e-39
0.58902431 -0.28662857 0.75815225 5.1660017e-39
0.59191656 -0.28607866 0.75728357 5.1660017e-39
0.59485459 -0.28708509 0.75638008 5.1660003e-39
0.56878597 -0.28306907 0.75676429 3.5053467e-39
0.57035941 -0.28308517 0.758389 3.5053467e-39
0.5862993 -0.28419349 0.75885367 5.0738019e-39
0.5889436 -0.28351465 0.75823975 5.1660003e-39
0.59180152 -0.28293708 0.75740778 5.1660017e-39
0.59476936 -0.28394923 0.75647187 5.1660017e-39
0.56882429 -0.28006953 0.75672114 3.5053467e-39
0.57039791 -0.28008544 0.75834596 3.5053467e-39
0.58634257 -0.28115454 0.75880647 5.0738019e-39
0.58891183 -0.2804274 0.75827414 5.1660003e-39
0.59172332 -0.27981594 0.75749218 5.1660003e-39
0.59465343 -0.28079829 0.75659657 5.1660017e-39
0.56888694 -0.27708259 0.75665063 3.4131483e-39
0.57043636 -0.27708527 0.75830293 3.5053467e-39
0.58638602 -0.27811515 0.75875938 5.0738019e-39
0.58888006 -0.27734053 0.75830853 5.1660003e-39
0.5916993 -0.27749366 0.75751817 5.1660003e-39
0.59454715 -0.27765355 0.75671083 5.1660003e-39
0.56955397 -0.2741428 0.75703228 3.136553e-39
0.5704999 -0.27409807 0.75823176 3.3209498e-39
0.58642936 -0.27507532 0.75871223 5.0738019e-39
0.58887196 -0.27426615 0.75831735 5.0738019e-39
0.59167528 -0.27517155 0.75754404 5.1660003e-39
0.59450364 -0.27454206 0.75675762 5.1660003e-39
0.56981158 -0.2712571 0.75674284 3.136553e-39
0.5707171 -0.27119121 0.75798869 3.0443559e-39
0.58647275 -0.272035 0.75866503 5.0738019e-39
0.58891559 -0.27121833 0.75827003 5.0738019e-39
0.59164333 -0.27207577 0.75757849 5.1660003e-39
0.59447134 -0.27143675 0.75679231 5.1660003e-39
0.59730881 -0.27001512 0.75600982 5.1660003e-39
0.56999695 -0.26908696 0.75653464 3.0443531e-39
0.57062387 -0.26804736 0.75733966 3.0443531e-39
0.58409554 -0.26905596 0.75899941 5.0738019e-39
0.58651614 -0.26899424 0.75861788 5.0738019e-39
0.58895934 -0.26817006 0.7582227 5.0738019e-39
0.59161139 -0.26898029 0.75761306 5.1660003e-39
0.59443915 -0.2683318 0.75682688 5.1660003e-39
0.59729254 -0.26845789 0.75602728 5.1660003e-39
0.57106239 -0.26532459 0.75760174 3.0443531e-39
0.58655953 -0.26595297 0.75857067 5.0738019e-39
0.58900297 -0.26512134 0.75817537 5.0738019e-39
0.59157944 -0.2658852 0.75764751 5.1660003e-39
0.59440696 -0.2652272 0.75686157 5.1660003e-39
0.59726828 -0.26612219 0.75605333 5.1660003e-39
0.57122946 -0.26238552 0.75741482 3.0443531e-39
0.58645546 -0.26283786 0.75868386 5.1660003e-39
0.58904666 -0.26207212 0.75812805 5.0738019e-39
0.59154749 -0.26279041 0.75768203 5.1660003e-39
0.59437478 -0.26212296 0.75689614 5.1660003e-39
0.5972358 -0.26300821 0.75608814 5.1660003e-39
0.57182527 -0.25940067 0.75787878 3.0443531e-39
