# .PCD v0.7 - Point Cloud Data file format
VERSION 0.7
FIELDS x y z rgb
SIZE 4 4 4 4
TYPE F F F F
COUNT 1 1 1 1
WIDTH 1025
HEIGHT 1
VIEWPOINT 0 0 0 1 0 0 0
POINTS 1025
DATA ascii
0.59221309 0.26229778 0.74555176 8.0210212e-39
0.58896714 0.2653015 0.74529046 7.2834534e-39
0.58489299 0.2698316 0.74673754 6.7291992e-39
0.58654302 0.26781651 0.74567205 6.9143121e-39
0.58322722 0.27159894 0.74537027 7.4671258e-39
0.58074945 0.274382 0.7452243 8.5749138e-39
0.57774776 0.27776068 0.74552733 9.0351731e-39
0.57905644 0.27634424 0.74635756 9.8652939e-39
0.57475924 0.28112116 0.74583274 1.1340062e-38
0.57643831 0.27917826 0.74470043 9.2192043e-39
0.57239574 0.28363648 0.74467546 1.1155671e-38
0.57324702 0.28278261 0.74601263 1.1247867e-38
0.56918609 0.28718978 0.7460345 8.390524e-39
0.57078725 0.28541714 0.74535632 1.0602858e-38
0.566275 0.2903423 0.7459172 9.1266443e-39
0.56786752 0.28857899 0.74524057 8.943339e-39
0.56384134 0.29294884 0.74526596 1.1708845e-38
0.56496108 0.2917265 0.74512517 1.1339702e-38
0.56057853 0.29664153 0.74558866 1.1708845e-38
0.56236333 0.29457983 0.74543923 1.1708845e-38
0.55881196 0.29870155 0.74572438 1.1708845e-38
0.55638033 0.30159053 0.74587631 1.1708845e-38
0.55371392 0.30476874 0.74554664 1.097128e-38
0.55106246 0.30793512 0.74521434 4.6119059e-39
0.55208874 0.30670685 0.74515581 7.7447888e-39
0.54847956 0.31111869 0.74481583 8.3061112e-39
0.54963672 0.30969387 0.74575043 6.3675212e-39
0.54672819 0.31327894 0.74536258 8.3064685e-39
0.54522872 0.3151297 0.7463842 8.398304e-39
0.54287809 0.3203429 0.74689233 8.4887018e-39
0.54472965 0.31989616 0.7446717 8.4890619e-39
0.54422694 0.32901543 0.74642968 3.5884003e-39
0.5447821 0.33037919 0.74460876 3.5884003e-39
0.64321905 0.22452497 0.74963218 8.483772e-39
0.6271714 0.23835902 0.74969077 5.8083247e-39
0.6128974 0.24229392 0.74854124 8.3064685e-39
0.61601663 0.24126384 0.74869305 8.2139183e-39
0.62187022 0.24081841 0.74830502 7.7508102e-39
0.61120164 0.24403481 0.7488063 8.3064685e-39
0.60766083 0.24764043 0.74836582 7.4749296e-39
0.6044265 0.25094053 0.74838245 6.0849116e-39
0.60151786 0.25375161 0.74845022 9.1270072e-39
0.59838575 0.25671193 0.74877602 1.1524454e-38
0.59527433 0.25963578 0.748523 1.1340423e-38
0.59241438 0.26231322 0.74839503 7.2856212e-39
0.58751667 0.26696527 0.74842501 7.0990635e-39
0.58950114 0.26504055 0.74853241 5.6242936e-39
0.58601433 0.26867998 0.74855572 9.0351731e-39
0.58374721 0.27123424 0.74877501 1.0233715e-38
0.58092791 0.27435076 0.7480914 1.097128e-38
0.58204752 0.27320343 0.74989939 1.1247867e-38
0.57793134 0.27772322 0.74838638 1.0602137e-38
0.57942724 0.2760396 0.74823946 1.1524454e-38
0.57541442 0.28052562 0.74815816 1.0418106e-38
0.57625341 0.27966779 0.74950641 7.4674873e-39
0.5720216 0.28425395 0.74855161 8.7585848e-39
0.57381117 0.28231701 0.74881983 8.573832e-39
0.56910694 0.28741693 0.74842405 7.5604004e-39
0.57023287 0.28618512 0.74828869 7.6536806e-39
0.56643903 0.29042482 0.74917716 1.0418103e-38
0.56799543 0.28865209 0.74854422 9.6808999e-39
0.56357652 0.29356748 0.74902099 1.1708845e-38
0.56483185 0.29208204 0.74796057 1.115567e-38
0.56190294 0.29534909 0.74827343 1.1708845e-38
0.5593608 0.29827744 0.74872911 1.1708845e-38
0.55660069 0.30141789 0.74849534 1.1524454e-38
0.5537619 0.30473804 0.74894333 9.5883427e-39
0.56889886 0.30562663 0.74859273 3.5884003e-39
0.55086035 0.3081899 0.74814183 4.3356693e-39
0.55239868 0.30632895 0.74709624 8.205767e-39
0.54852837 0.31106511 0.74821508 8.4901381e-39
0.54952657 0.30983436 0.74818438 6.5522656e-39
0.54554516 0.31474322 0.74830961 8.6738091e-39
0.54686922 0.31311077 0.74826747 8.5819736e-39
0.54422456 0.31637141 0.7483508 8.5819736e-39
0.54188848 0.31949666 0.74922931 8.3972264e-39
0.54071212 0.32356441 0.74949014 3.7738705e-39
0.54218984 0.32560667 0.74886703 3.6805959e-39
0.54448056 0.32857406 0.74842942 3.5884003e-39
0.54690665 0.33133209 0.74898922 3.5884003e-39
0.53654379 0.33645219 0.74992108 4.4206721e-39
0.61338675 0.24188057 0.75145566 8.3064685e-39
0.61614263 0.24072057 0.75199091 8.2139197e-39
0.61042303 0.24491756 0.7519148 8.3064685e-39
0.61211616 0.24318497 0.75165153 8.3064685e-39
0.60730863 0.24807763 0.7514084 7.1979896e-39
0.6092543 0.24606365 0.75010639 8.3061098e-39
0.60478979 0.25065187 0.75180531 8.0217303e-39
0.59527981 0.25287563 0.75089926 9.8649338e-39
0.60156912 0.25373003 0.75144458 1.1616649e-38
0.6030522 0.25233588 0.75213861 1.1247867e-38
0.59833217 0.25678349 0.75111991 1.1708845e-38
0.60008508 0.25512511 0.75075489 1.1708845e-38
0.59571403 0.25926045 0.75166577 1.1616649e-38
0.59083045 0.26393861 0.75165033 9.8652939e-39
0.59252352 0.26228908 0.75132602 8.7596666e-39
0.58793974 0.26669601 0.75024879 9.6805411e-39
0.58920604 0.26560837 0.75190449 1.097128e-38
0.58627862 0.26870283 0.75131422 1.1340062e-38
0.58363891 0.27167511 0.75156331 1.0879084e-38
0.58070797 0.27490902 0.7513876 8.9433362e-39
0.57816023 0.27770555 0.75118178 7.7437126e-39
0.57936603 0.27660292 0.75287902 1.0326271e-38
0.57515663 0.28103852 0.75149965 7.7444315e-39
0.57666826 0.27938026 0.75132757 6.9143163e-39
0.57217312 0.28435409 0.75181258 9.8649338e-39
0.57328999 0.28311324 0.7516948 1.0233714e-38
0.56973672 0.28697506 0.75114179 9.3124803e-39
0.57105845 0.28559244 0.75192904 9.6809013e-39
0.56641334 0.29066759 0.75149423 1.1708845e-38
0.56788802 0.28902912 0.75133771 1.1247867e-38
0.56494761 0.29230306 0.75164461 1.1708845e-38
0.56073004 0.2969318 0.75115407 1.1616649e-38
0.56220591 0.29534739 0.75174046 1.1247865e-38
0.55931133 0.29856715 0.75126696 1.0786887e-38
0.55680227 0.30148062 0.75169623 8.2050411e-39
0.57562846 0.30079812 0.75055921 4.6050521e-39
0.55365127 0.30505362 0.75174356 5.5313328e-39
0.55521989 0.30319959 0.75067741 9.1273632e-39
0.55089658 0.30798066 0.75115681 7.0067782e-39
0.55217957 0.30662948 0.75193959 5.2543578e-39
0.54822856 0.31125355 0.75124502 1.0327913e-38
0.54981303 0.30944055 0.75014132 7.011083e-39
0.54592073 0.31411204 0.75130272 1.0511943e-38
0.54690862 0.31288838 0.75127882 1.0787448e-38
0.54296821 0.31776899 0.75137782 8.7660033e-39
0.54427862 0.31614593 0.75134438 9.5006817e-39
0.5416612 0.31938794 0.75141019 8.3979453e-39
0.53994882 0.32164681 0.75040561 8.3061098e-39
0.54150248 0.32241029 0.75198108 4.603627e-39
0.5428797 0.32513094 0.7514832 4.2326837e-39
0.54466009 0.32636836 0.75241631 4.2326837e-39
0.54473341 0.32813397 0.75042343 3.5884003e-39
0.54612529 0.32880306 0.75220466 4.2326837e-39
0.54745507 0.33076641 0.75177622 3.8646242e-39
0.61220795 0.22060919 0.7535491 7.4728052e-39
0.61878431 0.23912367 0.75493038 8.1217255e-39
0.62170237 0.23820093 0.75418568 7.1958652e-39
0.62451488 0.23703781 0.75470096 5.8083247e-39
0.61302179 0.24233454 0.75449449 8.3064685e-39
0.61577678 0.24019673 0.75464773 8.3064699e-39
0.61048216 0.24492882 0.75488561 8.3064685e-39
0.60821462 0.24722248 0.75424433 8.1213626e-39
0.60483819 0.25063935 0.75478727 7.8373334e-39
0.606278 0.24922514 0.75553215 5.628185e-39
0.60161775 0.25371084 0.75442743 1.1708845e-38
0.60337687 0.25204664 0.75406826 1.0879084e-38
0.59869444 0.25647828 0.75452483 1.1708845e-38
0.595433 0.25967419 0.75462455 1.1708845e-38
0.59254575 0.26253736 0.75433731 1.1616649e-38
0.58949858 0.265652 0.75461882 1.1155671e-38
0.58696485 0.26841897 0.75450742 9.4035913e-39
0.58387995 0.27185994 0.75471091 9.8645709e-39
0.58523434 0.27015018 0.75322247 8.3905184e-39
0.58091223 0.27506617 0.75457585 9.2195616e-39
0.58206969 0.27381951 0.75443387 9.6805383e-39
0.57822973 0.27796713 0.75489861 1.0418105e-38
0.57975745 0.27630985 0.75471854 8.758945e-39
0.57502937 0.28143495 0.75429857 1.0786526e-38
0.57659119 0.27972561 0.75444907 1.0325908e-38
0.57258987 0.28406268 0.75362188 1.1524454e-38
0.57345867 0.28322452 0.75492007 1.1524454e-38
0.56925559 0.28776649 0.7539655 1.1524454e-38
0.57094377 0.28597671 0.75471431 1.1524454e-38
0.56683624 0.29037148 0.75329322 1.1708845e-38
0.56799263 0.28925794 0.75501418 1.0879083e-38
0.56376094 0.29389423 0.75451756 9.3117558e-39
0.5652194 0.29226559 0.75437212 1.0418103e-38
0.56230694 0.29551783 0.75466174 7.1908878e-39
0.5596059 0.29855028 0.75472564 6.9138973e-39
0.55675328 0.30175951 0.75422174 7.3741188e-39
0.55816704 0.30013883 0.75410736 4.0562083e-39
0.55381078 0.30492058 0.75459689 1.0139933e-38
0.55509496 0.30356824 0.75538111 1.1614322e-38
0.55094981 0.30794239 0.75451499 1.1062951e-38
0.5525257 0.30627394 0.75381601 1.1522128e-38
0.54765272 0.31144589 0.75496316 9.5928759e-39
0.54920518 0.309784 0.75427973 1.0971117e-38
0.54515404 0.31461614 0.75449067 9.1333425e-39
0.54659486 0.31290501 0.7539314 1.0327913e-38
0.54351854 0.31664243 0.75452739 8.4901395e-39
0.54186946 0.31923997 0.75420624 5.8104252e-39
0.54326594 0.31976271 0.75558442 5.0685694e-39
0.54278851 0.32154113 0.75387466 4.6961814e-39
0.54438716 0.32264981 0.75471413 4.2330438e-39
0.54497784 0.32517517 0.75356096 4.2326837e-39
0.54659688 0.32597554 0.75506687 3.8646242e-39
0.54714024 0.32811514 0.75404835 3.9564597e-39
0.54847634 0.33092681 0.75513387 3.5884003e-39
0.62542498 0.23678717 0.75716925 5.8083247e-39
0.61642289 0.23984739 0.75737494 8.3064699e-39
0.61969686 0.23887181 0.75738674 8.0288194e-39
0.6227054 0.23779029 0.75768793 6.4558199e-39
0.61393374 0.24149032 0.75732011 8.3064685e-39
0.6113916 0.24408145 0.7577076 8.3064685e-39
0.60744005 0.24808544 0.75732595 7.5674825e-39
0.60928249 0.24623139 0.75802898 8.3061098e-39
0.60490447 0.25063708 0.75773603 7.2845211e-39
0.60170871 0.2537069 0.7573514 1.1616649e-38
0.59839827 0.2570841 0.75786084 1.1708845e-38
0.60004872 0.2553978 0.75760877 1.1708845e-38
0.59529501 0.2601451 0.75741488 1.1708845e-38
0.59712088 0.25816935 0.75621122 1.1708845e-38
0.59283656 0.26264921 0.75779802 1.1708845e-38
0.58980101 0.26569882 0.75731087 1.0141519e-38
0.59121317 0.26431605 0.75804287 1.1708845e-38
0.58671743 0.26907155 0.75764632 9.219563e-39
0.58842683 0.26709864 0.75654042 7.3756504e-39
0.58400446 0.27199274 0.75797021 1.0878724e-38
0.58516544 0.27074277 0.75783205 9.2188413e-39
0.59033012 0.27190152 0.75650758 8.3064699e-39
0.58101881 0.27517828 0.75785601 1.1432258e-38
0.58265245 0.27338457 0.7571913 1.0879084e-38
0.57808995 0.27836856 0.75769484 1.1616648e-38
0.57968032 0.27656877 0.75706971 1.1340062e-38
0.57564694 0.28100145 0.75701171 1.1708845e-38
0.57651371 0.28016374 0.75830996 1.115567e-38
0.57230675 0.28471637 0.75734037 1.0325909e-38
0.57415992 0.28265515 0.75715798 1.1339701e-38
0.56988257 0.2873258 0.75666314 9.9571252e-39
0.5707379 0.28648588 0.75796539 8.02101e-39
0.56679535 0.29085916 0.7578758 4.3324365e-39
0.56824678 0.28922102 0.75774771 6.6377028e-39
0.56530511 0.29243788 0.75729793 7.19048e-39
0.56257892 0.29547229 0.75737447 8.2956953e-39
0.5596832 0.29869765 0.75765949 1.1338098e-38
0.56113487 0.29709047 0.75751072 1.1337742e-38
0.55692434 0.30164465 0.75705028 1.1338815e-38
0.55800617 0.30050731 0.75882393 1.0144245e-38
0.55395508 0.30478343 0.75745392 9.68471e-39
0.55543727 0.30321658 0.75725287 1.0971476e-38
0.55100435 0.3079026 0.7578544 8.6738077e-39
0.55228037 0.30655879 0.75863612 8.3064685e-39
0.54826093 0.3107976 0.7572763 8.3064685e-39
0.54972732 0.30924743 0.75707591 8.398304e-39
0.54491895 0.31439051 0.7581712 8.3064685e-39
0.54644525 0.31273589 0.75751245 8.3064685e-39
0.54269779 0.31796628 0.75625604 3.3197559e-39
0.54392338 0.31647199 0.75764334 5.4441496e-39
0.55498368 0.31513149 0.75709045 7.3774132e-39
0.54479045 0.31918392 0.75756758 4.6997897e-39
0.54574466 0.32150239 0.75720221 3.6805959e-39
0.54633778 0.32303202 0.75763822 3.6805945e-39
0.54700965 0.32529154 0.75722927 3.5884003e-39
0.54823768 0.32872266 0.75768012 3.5884003e-39
0.54907066 0.33113456 0.75784087 3.5884003e-39
0.54159349 0.3412739 0.75662303 8.3061098e-39
0.62956721 0.21662344 0.75992763 8.5795073e-39
0.62633324 0.23653707 0.75963247 5.8083247e-39
0.6172812 0.23938324 0.76099837 8.3061112e-39
0.62034178 0.23852578 0.76010817 7.8437177e-39
0.62361437 0.23753969 0.76014394 5.9930691e-39
0.62405854 0.23731622 0.76194078 5.9005189e-39
0.61399704 0.24151391 0.76026183 8.3064685e-39
0.61061782 0.24495804 0.76076746 8.3064685e-39
0.61230433 0.24323909 0.76051557 8.3064685e-39
0.60749859 0.24808674 0.76027155 7.7522283e-39
0.60493451 0.25061932 0.76070929 7.1923227e-39
0.60184145 0.25371808 0.76021767 1.1432258e-38
0.60323811 0.25230324 0.76099396 1.0694693e-38
0.59847498 0.25706416 0.7607832 1.1708845e-38
0.60044372 0.25513417 0.75944531 1.1708845e-38
0.59624904 0.25930324 0.76015264 1.1708845e-38
0.5924722 0.26319599 0.76119268 1.1708845e-38
0.5941866 0.26138452 0.76048028 1.1708845e-38
0.59001929 0.26571289 0.76008195 1.1340423e-38
0.59159052 0.26403427 0.75989056 1.1708845e-38
0.58739156 0.26850602 0.75992107 1.0971281e-38
0.58826071 0.26766634 0.76122969 1.1524454e-38
0.58381206 0.27239165 0.76080894 1.1340062e-38
0.58574271 0.27031314 0.7605834 1.1432258e-38
0.58139497 0.27498153 0.76044768 1.0786527e-38
0.58227593 0.27405107 0.76098502 1.1247865e-38
0.57870251 0.27794021 0.76040202 9.9571252e-39
0.57982361 0.27669352 0.76029497 1.05103e-38
0.57533407 0.28165594 0.76074052 6.5458673e-39
0.57721132 0.27959815 0.76054341 8.3897939e-39
0.57289213 0.28426361 0.76007283 5.4391554e-39
0.57375371 0.283337 0.76061553 7.4670767e-39
0.56967437 0.28775042 0.7614063 1.1337743e-38
0.57137161 0.2858834 0.76026374 6.7291347e-39
0.56808019 0.28948051 0.76037812 9.5867732e-39
0.56510353 0.29278523 0.76090884 1.0971117e-38
0.56244087 0.29572356 0.75997674 1.0603418e-38
0.55982667 0.29857877 0.76050395 9.041507e-39
0.55658066 0.30201018 0.76045424 8.3983026e-39
0.55833536 0.30015469 0.7607016 8.398304e-39
0.55409151 0.30464172 0.7603066 8.3064685e-39
0.55114561 0.30775493 0.76069927 8.3064685e-39
0.55261618 0.30620086 0.76050359 8.3064685e-39
0.5480473 0.31103128 0.76016021 8.3064685e-39
0.54931283 0.30969167 0.76094329 8.3064685e-39
0.54525721 0.31402248 0.76003307 8.3064685e-39
0.54652297 0.31269005 0.76080883 8.3064685e-39
0.54405856 0.31630611 0.7614345 5.3515953e-39
0.54551321 0.31932855 0.7597338 4.4232014e-39
0.5459851 0.32106996 0.7591821 3.9582618e-39
0.54740697 0.32499877 0.75977898 3.5884003e-39
0.54883087 0.32893294 0.76037711 3.5884003e-39
0.54930687 0.33068717 0.75982469 3.5884003e-39
0.6179226 0.23903635 0.76370633 8.213561e-39
0.6209805 0.23817912 0.76282644 7.4735157e-39
0.62148184 0.23797601 0.76455557 8.2103759e-39
0.62525719 0.23717014 0.76409018 6.9146722e-39
0.6132111 0.24239714 0.76331848 8.3064685e-39
0.61532974 0.24024338 0.76300395 8.3064685e-39
0.61063981 0.24495554 0.76373529 8.3064685e-39
0.60834277 0.24721642 0.76313263 8.2139155e-39
0.6040501 0.25141597 0.76387841 8.8507791e-39
0.60618454 0.24931842 0.76351345 6.1817133e-39
0.60181117 0.25366822 0.76324207 1.1616649e-38
0.59931165 0.25618124 0.76363564 1.1708845e-38
0.59551954 0.26011539 0.76317364 1.1708845e-38
0.59729505 0.25828952 0.76390147 1.1708845e-38
0.59315145 0.26264176 0.76345605 1.1708845e-38
0.59020835 0.2657136 0.76287222 1.1524454e-38
0.59137928 0.26460028 0.76460183 1.1339701e-38
0.58709198 0.26905197 0.76323777 1.0602496e-38
0.58883739 0.2672441 0.76397002 1.0602495e-38
0.58448839 0.27182576 0.76306611 9.4961457e-39
0.58535194 0.27098843 0.76436937 7.7440644e-39
0.58127522 0.27542245 0.76431608 6.4529122e-39
0.58288175 0.27362967 0.76368839 6.8220983e-39
0.57815403 0.27873707 0.76324797 5.8997328e-39
0.57967168 0.27709186 0.76308054 6.2685433e-39
0.57585084 0.28117919 0.76353645 1.0415804e-38
0.57700104 0.27995962 0.76339179 8.019477e-39
0.57242084 0.28482446 0.76396006 1.0971117e-38
0.57432145 0.28280091 0.76372761 1.087713e-38
0.57076067 0.286612 0.76318812 1.1062951e-38
0.56685585 0.29089403 0.76454967 8.3064685e-39
0.56853282 0.28904188 0.76342601 9.9602151e-39
0.56528294 0.29261935 0.76351184 8.6738077e-39
0.56278992 0.29538152 0.76351154 8.3064671e-39
0.55962467 0.29878572 0.76316625 8.3064685e-39
0.56122535 0.29709131 0.76415569 8.3064685e-39
0.55697274 0.30158758 0.76374888 8.3064685e-39
0.55348486 0.30527589 0.76324934 8.3064685e-39
0.55532801 0.30332807 0.76300883 8.3064685e-39
0.55096471 0.30801794 0.76352727 8.3064685e-39
0.55201477 0.30682939 0.7634415 8.3064685e-39
0.54794377 0.31132194 0.76290399 8.3064685e-39
0.54950595 0.30972034 0.76408756 8.3064685e-39
0.54533309 0.31436977 0.76368976 8.3064685e-39
0.54679698 0.31275353 0.76385826 8.3064685e-39
0.54404372 0.31647468 0.76369697 4.611889e-39
0.54408389 0.31943524 0.76365018 3.7760355e-39
0.544258 0.32100236 0.76344734 3.9586219e-39
0.61602509 0.23972264 0.76676011 8.8603527e-39
0.61951965 0.23884286 0.76654702 8.8589318e-39
0.62326783 0.23803991 0.76609802 7.1923213e-39
0.62505478 0.23810388 0.76764119 6.9146722e-39
0.62705052 0.23723403 0.76563793 6.9146722e-39
0.61409086 0.24154909 0.76613837 8.3064685e-39
0.61118698 0.2443718 0.76614881 8.3064685e-39
0.61210948 0.24354403 0.76742762 8.3064685e-39
0.6074549 0.24802828 0.7662881 7.7522297e-39
0.6093533 0.2462135 0.7669239 8.3061098e-39
0.60489434 0.25054538 0.76671785 7.1001229e-39
0.60184807 0.25364354 0.76618177 1.1524454e-38
0.60309082 0.25255311 0.76785254 1.1155671e-38
0.59866971 0.25704169 0.76654404 1.1616649e-38
0.60024947 0.25534278 0.76637065 1.1708845e-38
0.59291404 0.25975206 0.76670074 1.069669e-38
0.59600306 0.25985453 0.76638365 1.1063474e-38
0.59294355 0.26306951 0.76628184 9.9571252e-39
0.59434414 0.26168671 0.76702374 9.6805369e-39
0.59020692 0.26599589 0.76659602 6.8224612e-39
0.59176522 0.2643241 0.76642102 9.0351661e-39
0.58689249 0.26945853 0.76605785 6.4532933e-39
0.58826828 0.26808071 0.76681089 6.3607334e-39
0.58458614 0.27194762 0.76631021 7.3741188e-39
0.58573937 0.27070493 0.76618338 4.7012064e-39
0.58111751 0.27564776 0.76671779 1.1614322e-38
0.58266312 0.27400899 0.76652962 9.8629958e-39
0.57864487 0.27825627 0.7660619 1.115443e-38
0.57996142 0.2768735 0.76685762 1.1062594e-38
0.57519883 0.28191 0.76648444 9.6847114e-39
0.57672781 0.2802889 0.76629686 1.0695612e-38
0.57292944 0.28433931 0.76674753 8.4901395e-39
0.57405519 0.28312257 0.76662385 9.2251766e-39
0.57117087 0.28624564 0.7664566 8.3983026e-39
0.56830776 0.28935665 0.76628244 8.3064685e-39
0.56572968 0.29217169 0.7665484 8.3064685e-39
0.56249869 0.29571897 0.76663107 8.3064685e-39
0.56407475 0.2940104 0.76765114 8.3064685e-39
0.56006104 0.29831702 0.76621175 8.3064685e-39
0.55640966 0.30225769 0.76662159 8.3064685e-39
0.55821717 0.30028376 0.7664333 8.3064685e-39
0.55416209 0.30474809 0.7662012 8.3064685e-39
0.55501235 0.30385542 0.76672137 8.3064685e-39
0.55095607 0.30837023 0.76614571 8.3064685e-39
0.55249882 0.30668822 0.76661086 8.3064685e-39
0.54853499 0.31113559 0.76632202 8.3064685e-39
0.549806 0.30980843 0.76709139 8.3064685e-39
0.54541636 0.31465912 0.76657444 8.3064685e-39
0.54680067 0.31309569 0.76646191 8.3064685e-39
0.54410315 0.3162553 0.76660818 6.4593581e-39
0.54380846 0.31945166 0.76620662 3.7753153e-39
0.54415584 0.3225795 0.76580352 3.6813162e-39
0.54432201 0.32532021 0.76672518 3.5884003e-39
0.54448771 0.32805863 0.76764834 3.5884003e-39
0.61735493 0.23962647 0.76874346 9.5057151e-39
0.61903179 0.23965594 0.77037317 9.1362278e-39
0.62244552 0.23893499 0.76915145 7.7483313e-39
0.62518823 0.23855549 0.76972914 6.8224738e-39
0.62803543 0.23821051 0.77021539 6.9146722e-39
0.61382854 0.24203703 0.76900125 8.3064685e-39
0.61533487 0.24064454 0.76968527 8.3064685e-39
0.61082631 0.24500406 0.76948351 8.3064685e-39
0.61275423 0.24319452 0.77009737 8.3064685e-39
0.60795265 0.2478058 0.7694788 8.1213626e-39
0.60519266 0.25063202 0.76937121 6.1785211e-39
0.6065008 0.24956739 0.7709738 6.2749683e-39
0.60201913 0.2540468 0.76970714 1.0048962e-38
0.60360289 0.2523421 0.76954013 1.0418105e-38
0.59900188 0.25712535 0.76915884 8.942609e-39
0.60050899 0.25558746 0.76943129 8.7585764e-39
0.596255 0.26008263 0.76945102 6.1763603e-39
0.59743041 0.2588172 0.76932633 7.375279e-39
0.59319961 0.26328784 0.76934475 6.6369307e-39
0.59462631 0.26192039 0.77005613 6.8213121e-39
0.59008944 0.26644814 0.76931256 9.3098304e-39
0.59175235 0.26475254 0.76939631 8.1120341e-39
0.58765751 0.2688933 0.7696836 1.1246265e-38
0.58885211 0.2676636 0.7695201 1.1338101e-38
0.58394659 0.27272877 0.76922047 1.0603778e-38
0.58580142 0.27081406 0.76944941 1.0787089e-38
0.58161724 0.27517936 0.76950896 9.4092063e-39
0.58276951 0.2739504 0.76937735 1.0052409e-38
0.57814747 0.27883613 0.76993531 8.3064685e-39
0.57968181 0.2772114 0.76975155 8.4901381e-39
0.57569253 0.2814258 0.76927769 8.3064685e-39
0.57732904 0.27968416 0.76860654 8.5819736e-39
0.57380837 0.28344998 0.76948643 8.3064685e-39
0.56975818 0.28782094 0.76801544 8.3064685e-39
0.57120919 0.28628439 0.7697472 8.3064685e-39
0.56835276 0.28938806 0.76956546 8.3064685e-39
0.56551075 0.29247585 0.7693848 8.3064685e-39
0.56296492 0.29527503 0.76962787 8.3064685e-39
0.55978906 0.29881442 0.76933384 8.3064685e-39
0.56142187 0.29714596 0.7706098 8.3064685e-39
0.55718118 0.30178711 0.76945406 8.3064685e-39
0.55803418 0.30089444 0.76997322 8.3064685e-39
0.55396837 0.30541852 0.7693873 8.3064685e-39
0.55570787 0.3034302 0.76926768 8.3064685e-39
0.55154222 0.30819181 0.76955384 8.3064685e-39
0.55258065 0.30700493 0.76948291 8.3064685e-39
0.54841906 0.31172675 0.76979119 8.3064685e-39
0.54980737 0.31015936 0.76968306 8.3064685e-39
0.5458805 0.31436402 0.76826519 8.3064685e-39
0.54726529 0.31297195 0.76944894 8.3064685e-39
0.54441381 0.31629726 0.76951158 7.2898209e-39
0.54354829 0.31992522 0.76984376 3.6813176e-39
0.54383469 0.32227862 0.76951319 3.5887604e-39
0.54421335 0.32532281 0.76944631 3.5884003e-39
0.54471159 0.32907414 0.76961207 3.5884003e-39
0.62070906 0.23968539 0.77200335 8.8585773e-39
0.62182748 0.23970504 0.7730903 8.2110835e-39
0.62583256 0.23900035 0.7724067 7.3756504e-39
0.62896097 0.23935163 0.77371979 8.1132154e-39
0.61425549 0.24199815 0.77262455 8.3064685e-39
0.61675787 0.24039094 0.77266812 9.5060725e-39
0.61105567 0.24507935 0.77219898 8.3064685e-39
0.61232728 0.24399811 0.77384543 8.3064685e-39
0.60820824 0.2480742 0.77253342 8.3061098e-39
0.60940915 0.24678618 0.7724086 8.3064685e-39
0.60509205 0.25133353 0.77242428 4.3342372e-39
0.60654002 0.24994807 0.77314126 6.8274106e-39
0.60199642 0.25457913 0.77231002 6.5451106e-39
0.60366225 0.2528429 0.77242637 6.7295145e-39
0.59963441 0.2571204 0.77255362 8.6648324e-39
0.60081422 0.25585115 0.77243239 6.7287578e-39
0.59600556 0.26086742 0.77302802 1.143101e-38
0.59779686 0.25893655 0.77264023 9.4956636e-39
0.59327441 0.26343149 0.77258158 1.0695612e-38
0.59508419 0.26167911 0.77178633 1.0785294e-38
0.59075737 0.26585165 0.77302611 9.4092063e-39
0.59198153 0.26462922 0.77283925 1.0144245e-38
0.58705598 0.26970375 0.77253377 8.6738091e-39
0.58900541 0.26764423 0.77230525 9.3170121e-39
0.58471 0.2721571 0.772825 8.3064685e-39
0.58588332 0.27093244 0.77267838 8.3064685e-39
0.58120674 0.27581394 0.77326453 8.3064685e-39
0.58295804 0.27392802 0.77212375 8.3064685e-39
0.57869053 0.27838272 0.7726624 8.3064685e-39
0.58033562 0.27663654 0.77199501 8.3064685e-39
0.57522213 0.28199762 0.77310431 8.3064685e-39
0.57684875 0.28026217 0.77244532 8.3064685e-39
0.57282585 0.2845881 0.77240014 8.3064685e-39
0.57441449 0.28284594 0.77177542 8.3064685e-39
0.57097512 0.28660503 0.77258176 8.3064685e-39
0.56695324 0.2909469 0.77110976 8.3064685e-39
0.56839496 0.28941655 0.77283502 8.3064685e-39
0.56556267 0.29249865 0.77264333 8.3064685e-39
0.57380795 0.2923826 0.77351606 8.1132154e-39
0.56277919 0.29558238 0.77241451 8.3064685e-39
0.56038266 0.29842588 0.77250415 8.3064685e-39
0.5572561 0.30219001 0.77305555 8.3064685e-39
0.55867028 0.30044556 0.77257591 8.3064685e-39
0.55454755 0.30524707 0.77278781 8.3064685e-39
0.55570573 0.30380124 0.77185315 8.3064685e-39
0.55142176 0.30879438 0.77300799 8.3064685e-39
0.55287111 0.30709666 0.77247185 8.3064685e-39
0.54888016 0.31143463 0.77147871 8.3064685e-39
0.55027038 0.31004429 0.77265805 8.3064685e-39
0.54704708 0.31363383 0.77246571 8.3064685e-39
0.54436171 0.31662631 0.77222782 8.3064685e-39
0.54361254 0.31906578 0.77235204 3.6823994e-39
0.54423141 0.32238683 0.77237773 3.5884003e-39
0.54482663 0.32535964 0.77279788 3.5884003e-39
0.54524481 0.3285183 0.7723186 3.5884003e-39
0.54573619 0.33070385 0.77286029 3.5884003e-39
0.62299371 0.23974171 0.77413017 8.7610665e-39
0.62468165 0.2399648 0.7746526 8.1132154e-39
0.61405796 0.242506 0.77539247 8.3064685e-39
0.61577964 0.24120185 0.77585447 9.8755683e-39
0.61901498 0.24044083 0.77480459 1.0243636e-38
0.62212014 0.24079594 0.77609986 9.7791197e-39
0.62550938 0.24065995 0.7760306 8.1135714e-39
0.62891716 0.24052459 0.77596372 8.1132154e-39
0.61162579 0.24508581 0.77565551 8.3064685e-39
0.61283112 0.24379383 0.77553415 8.3064685e-39
0.60849851 0.24835402 0.77553892 9.5006817e-39
0.60993916 0.24683762 0.77553654 8.3983026e-39
0.60538727 0.25160658 0.77542222 1.0231769e-38
0.60706121 0.24986671 0.77554005 1.0327196e-38
0.6027621 0.25426134 0.77482325 1.1614322e-38
0.60370433 0.25345373 0.77605045 1.106331e-38
0.59914577 0.25782251 0.77635866 8.8578374e-39
0.60113662 0.25593436 0.77503395 1.1062953e-38
0.59640825 0.26039281 0.77590549 8.7660019e-39
0.59829473 0.25866181 0.77504534 1.0144243e-38
0.59368187 0.26295257 0.77545542 8.3064685e-39
0.59497625 0.26175335 0.77520144 8.9496715e-39
0.59014702 0.26667076 0.77586669 8.3064685e-39
0.59210229 0.26460549 0.77564454 8.3064685e-39
0.58762258 0.26927936 0.77523476 8.3064685e-39
0.5887897 0.26804653 0.77510047 8.3064685e-39
0.58430624 0.27280974 0.77655065 8.3064685e-39
0.58606523 0.27091631 0.77541804 8.3064685e-39
0.58174974 0.27536827 0.77597988 8.3064685e-39
0.58314538 0.27390596 0.77485919 8.3064685e-39
0.57815987 0.2789427 0.77652949 8.3064685e-39
0.58000028 0.27712268 0.7752893 8.3064685e-39
0.57571816 0.28151816 0.77586484 8.3064685e-39
0.57734704 0.27978668 0.77520919 8.3064685e-39
0.57396501 0.28341815 0.7755636 8.3064685e-39
0.56983501 0.28788775 0.77456057 8.3064685e-39
0.57142854 0.28617835 0.77557087 8.3064685e-39
0.56817311 0.28972951 0.77564305 8.3064685e-39
0.56562293 0.29252398 0.7758764 8.3064685e-39
0.56283885 0.29559714 0.77564806 8.3064685e-39
0.56419134 0.29404879 0.77415651 8.3064685e-39
0.55980688 0.29909959 0.77534509 8.3064685e-39
0.56115174 0.29747307 0.77531821 8.3064685e-39
0.55755556 0.30182603 0.7749216 8.3064685e-39
0.55827534 0.30094433 0.77631491 8.3064685e-39
0.5542804 0.30578607 0.7763862 8.3064685e-39
0.55579156 0.30395567 0.77542681 8.3064685e-39
0.55190152 0.30851674 0.77466792 8.3064685e-39
0.55314189 0.3071776 0.77546906 8.3064685e-39
0.55008703 0.31073749 0.7756173 8.3064685e-39
0.5476312 0.31342793 0.77510369 8.3064685e-39
0.57124949 0.31361991 0.77567619 9.9602151e-39
0.54463756 0.31691435 0.77543634 7.2898209e-39
0.54623604 0.31528533 0.7766884 8.3064685e-39
0.54433858 0.31981379 0.77592355 3.5902023e-39
0.54479551 0.32258993 0.77503592 3.588759e-39
0.54572916 0.32619527 0.77616769 3.5884003e-39
0.54577631 0.32796419 0.77501655 3.5884003e-39
0.54633856 0.3291721 0.77657193 3.5884003e-39
0.54609007 0.33033168 0.77465886 3.5884003e-39
0.61310357 0.22973981 0.77791065 8.7674452e-39
0.61641598 0.24162987 0.778503 9.321684e-39
0.62633413 0.2413559 0.77740991 8.1132154e-39
0.62802595 0.24158071 0.77793586 8.1132154e-39
0.61352307 0.24423631 0.77812374 9.321684e-39
0.61529988 0.24353848 0.77961886 9.321684e-39
0.60860765 0.24876527 0.77762002 1.1251294e-38
0.61079723 0.24719241 0.77846563 9.4135181e-39
0.61288291 0.2461146 0.77985901 9.321684e-39
0.60676163 0.25074837 0.77876568 9.7779832e-39
0.60228276 0.25477603 0.77969301 8.3064685e-39
0.60433841 0.25290111 0.77832055 9.041507e-39
0.59941041 0.25750989 0.77827424 8.3064685e-39
0.60115236 0.2558957 0.77793986 8.5819736e-39
0.59680951 0.25991988 0.77877283 8.3064685e-39
0.59810817 0.25871658 0.77852321 8.3064685e-39
0.59305245 0.26377606 0.7783016 8.3064685e-39
0.59491009 0.26184312 0.77855539 8.3064685e-39
0.59070832 0.26625156 0.77856195 8.3064685e-39
0.59187889 0.2650153 0.77843142 8.3064685e-39
0.58765864 0.26938236 0.77847946 8.3064685e-39
0.58913636 0.26788887 0.77875048 8.3064685e-39
0.5846138 0.27249348 0.7784124 8.3064685e-39
0.58621907 0.27088869 0.77817518 8.3064685e-39
0.58115089 0.27591372 0.77989519 8.3064685e-39
0.58300579 0.27408883 0.77865702 8.3064685e-39
0.57845992 0.27861428 0.77839577 8.3064685e-39
0.58005494 0.27703187 0.7781508 8.3064685e-39
0.57695585 0.28023031 0.77854776 8.3064685e-39
0.57271785 0.2848317 0.77800655 8.3064685e-39
0.57431161 0.28312057 0.77901947 8.3064685e-39
0.57124799 0.28643984 0.77813816 8.3064685e-39
0.56863761 0.28930217 0.77860254 8.3064685e-39
0.56541938 0.29283255 0.77865165 8.3064685e-39
0.56705558 0.29100209 0.77759355 8.3064685e-39
0.56291354 0.295618 0.77884901 8.3064685e-39
0.56017172 0.29868031 0.77859026 8.3064685e-39
0.56149286 0.29713792 0.77713335 8.3064685e-39
0.55722994 0.3021937 0.77820516 8.3064685e-39
0.55856532 0.30057871 0.77818185 8.3064685e-39
0.55457783 0.30541724 0.77824247 8.3064685e-39
0.55556571 0.30420783 0.77823365 8.3064685e-39
0.55177748 0.30884832 0.77918774 8.398304e-39
0.5532648 0.30702704 0.77825159 8.3064685e-39
0.55036598 0.31058145 0.77804124 8.3064685e-39
0.54802257 0.31341711 0.77831298 8.4901381e-39
0.54536206 0.31655669 0.77840966 8.7656432e-39
0.54673022 0.31501096 0.7783168 8.6741678e-39
0.54466707 0.31949857 0.77847022 3.4065355e-39
0.54535371 0.32251003 0.77878261 3.588759e-39
0.54580355 0.32494414 0.77827269 3.5884003e-39
0.54620284 0.32634193 0.77891362 3.5884003e-39
0.54664671 0.32877737 0.77841127 3.5884003e-39
0.54725963 0.33073872 0.77990144 3.5884003e-39
0.62482619 0.2372534 0.78180695 1.3829857e-38
0.61745071 0.24220386 0.78074384 9.321684e-39
0.61904335 0.24130535 0.78170234 9.3213253e-39
0.6145947 0.24539496 0.78141207 8.7681585e-39
0.61633426 0.24410896 0.78185427 9.321684e-39
0.61042225 0.24845913 0.7812413 8.3064685e-39
0.61284363 0.24686289 0.78135061 8.952547e-39
0.60775512 0.2499492 0.78139186 8.3064685e-39
0.60250205 0.25445113 0.78164619 8.3064685e-39
0.60423917 0.2528275 0.78132844 8.3064685e-39
0.59979135 0.25703672 0.78115243 8.3064685e-39
0.60120344 0.255665 0.78188276 8.3064685e-39
0.59610015 0.26072299 0.78168261 8.3064685e-39
0.59769708 0.25907117 0.7814889 8.3064685e-39
0.59356099 0.26334181 0.78104258 8.3064685e-39
0.59490156 0.26195663 0.78183079 8.3064685e-39
0.59157395 0.26538721 0.78129143 8.3064685e-39
0.58760029 0.26944566 0.78180885 8.3064685e-39
0.58919901 0.26783147 0.78158873 8.3064685e-39
0.58490372 0.2721706 0.78028727 8.3064685e-39
0.58599132 0.27104726 0.78204411 8.3064685e-39
0.58144706 0.27558917 0.78175688 8.3064685e-39
0.58304358 0.27400067 0.78152078 8.3064685e-39
0.57877171 0.27829236 0.78024393 8.3064685e-39
0.57986629 0.27717665 0.78198069 8.3064685e-39
0.57560003 0.28177792 0.78144926 8.3064685e-39
0.5770781 0.28016081 0.78132147 8.3064685e-39
0.57412654 0.28338993 0.78157592 8.3064685e-39
0.56992579 0.28796095 0.78102022 8.3064685e-39
0.57137787 0.28639203 0.78162849 8.3064685e-39
0.56846726 0.28955659 0.78114682 8.3064685e-39
0.56589198 0.2924034 0.78158504 8.3064685e-39
0.56272203 0.29591945 0.78159857 8.3064685e-39
0.56433272 0.29409969 0.78056479 8.3064685e-39
0.55988032 0.29907805 0.78181475 8.3064685e-39
0.56129897 0.29750115 0.78170717 8.3064685e-39
0.55733269 0.30204713 0.78099793 8.3064685e-39
0.55857116 0.30054581 0.7814424 8.3064685e-39
0.55460513 0.30537674 0.78147936 8.4901381e-39
0.55582714 0.3038775 0.78193742 8.3983026e-39
0.55291557 0.30743861 0.78140163 8.7656432e-39
0.55038536 0.31051031 0.78161538 9.5928759e-39
0.54787111 0.31359422 0.78084636 9.8683796e-39
0.54512739 0.31714347 0.78158063 8.4811642e-39
0.54618216 0.31561428 0.78111619 1.1246981e-38
0.54507464 0.31961966 0.78127801 3.3147029e-39
0.54571825 0.3226012 0.78163928 3.5887604e-39
0.54638982 0.32560021 0.78196847 3.5884003e-39
0.54688495 0.32839558 0.78104877 3.5884003e-39
0.54737067 0.33022958 0.78195232 3.5884003e-39
0.61461437 0.23475818 0.78301221 1.0879443e-38
0.62317294 0.23946449 0.78487074 6.5462471e-39
0.62035686 0.24165995 0.78402418 9.1365823e-39
0.62195086 0.240762 0.78498524 8.1185292e-39
0.61479717 0.24565388 0.78446686 8.3064685e-39
0.61686629 0.24449432 0.78458112 8.3064685e-39
0.6185267 0.24337113 0.78402281 8.7681585e-39
0.61067998 0.2479613 0.78423935 8.3064685e-39
0.61273515 0.24680957 0.78435284 8.3064685e-39
0.60543251 0.25153217 0.78409767 8.3064685e-39
0.60744113 0.24980377 0.78460056 8.3064685e-39
0.60282969 0.25396556 0.78456521 8.3064685e-39
0.60412943 0.25275037 0.78433239 8.3064685e-39
0.59895384 0.25780109 0.78417814 8.3064685e-39
0.60073495 0.25600848 0.78488874 8.3064685e-39
0.5965305 0.26026449 0.78449166 8.3064685e-39
0.59773308 0.259031 0.78434366 8.3064685e-39
0.59347242 0.26341492 0.78438812 8.3064685e-39
0.59480923 0.2620337 0.78517592 8.3064685e-39
0.59042907 0.26655015 0.78428495 8.3064685e-39
0.59213704 0.26479468 0.78360128 8.3064685e-39
0.58788174 0.26912475 0.78368384 8.3064685e-39
0.5886966 0.26828313 0.78499997 8.3064685e-39
0.58427179 0.27271834 0.78420484 8.3064685e-39
0.58601475 0.27096298 0.78490716 8.3064685e-39
0.58173615 0.27526265 0.78362054 8.3064685e-39
0.58257639 0.27443564 0.78490067 8.3064685e-39
0.57851523 0.27874172 0.78485328 8.3064685e-39
0.58000714 0.27712515 0.78471994 8.3064685e-39
0.57593346 0.28146273 0.78326333 8.3064685e-39
0.57730913 0.28002465 0.78450763 8.3064685e-39
0.57279432 0.28492153 0.78444487 8.3064685e-39
0.57426339 0.28331813 0.7843194 8.3064685e-39
0.57133222 0.28652105 0.78456658 8.3064685e-39
0.5686065 0.28950149 0.78460908 8.3064685e-39
0.56564617 0.29277188 0.78455919 8.3064685e-39
0.56717056 0.29106337 0.78399414 8.3064685e-39
0.56288737 0.29582289 0.78430837 8.3983026e-39
0.56412739 0.29447496 0.78512347 8.398304e-39
0.56004536 0.29897341 0.78452283 8.5819736e-39
0.56164759 0.29717243 0.78349477 8.3064685e-39
0.55723709 0.30211458 0.78471643 9.3170121e-39
0.55863613 0.30054474 0.7846235 8.7660033e-39
0.55453616 0.30528736 0.78480768 1.0787448e-38
0.55555707 0.30410483 0.78476214 1.0052409e-38
0.5516274 0.30863345 0.78586328 1.1614679e-38
0.55320007 0.30687228 0.78484243 1.0971117e-38
0.55026591 0.31037903 0.78467488 1.1430651e-38
0.54771864 0.31341618 0.78459597 1.161432e-38
0.54538065 0.31679422 0.78418779 7.7428985e-39
0.54637563 0.31517571 0.78306997 1.1614681e-38
0.54568762 0.31958073 0.78492379 3.7745936e-39
0.54583156 0.32210702 0.78368127 3.5887604e-39
0.54617184 0.32289228 0.7847411 3.5884003e-39
0.5467118 0.32566264 0.78485769 3.5884003e-39
0.54732734 0.32890955 0.78416878 3.5884003e-39
0.63462508 0.23299022 0.78770173 8.2103731e-39
0.62458014 0.239402 0.78674006 6.5458897e-39
0.61926234 0.24267972 0.78869742 8.2139183e-39
0.62230456 0.24109159 0.78787875 7.1962225e-39
0.61496294 0.24532558 0.78646415 8.3064685e-39
0.61644977 0.24433543 0.78787118 8.3064685e-39
0.61910266 0.24300477 0.78669959 8.3061112e-39
0.6088925 0.24861211 0.78710473 8.3064685e-39
0.61093664 0.24746591 0.78722274 8.3064685e-39
0.61298764 0.24631587 0.787341 8.3064685e-39
0.60586524 0.25089437 0.78797913 8.3064685e-39
0.60716486 0.24967371 0.78775495 8.3064685e-39
0.60199457 0.25474441 0.7875675 8.3064685e-39
0.6040554 0.25268653 0.78728557 8.3064685e-39
0.5995487 0.25720859 0.78788877 8.3064685e-39
0.60077029 0.25597787 0.78772885 8.3064685e-39
0.59643638 0.26034743 0.78782392 8.3064685e-39
0.59818113 0.25858465 0.7871241 8.3064685e-39
0.59338319 0.26348877 0.78771466 8.3064685e-39
0.59509683 0.26172733 0.78703827 8.3064685e-39
0.59085882 0.26607996 0.78707922 8.3064685e-39
0.59174627 0.26516438 0.78760034 8.3064685e-39
0.58102548 0.26972505 0.78814715 9.219563e-39
0.58724123 0.26968509 0.7875852 8.3064685e-39
0.58924687 0.26768467 0.78730559 8.3064685e-39
0.58472848 0.27224654 0.78696615 8.3064685e-39
0.58558053 0.2714262 0.78823173 8.3064685e-39
0.58151603 0.27574587 0.78816497 8.3064685e-39
0.58311951 0.27399921 0.78756577 8.3064685e-39
0.57889795 0.27845436 0.78660721 8.3064685e-39
0.58020717 0.27709958 0.78738481 8.3064685e-39
0.57575393 0.28192681 0.78776968 8.3064685e-39
0.57723373 0.2803224 0.787642 8.3064685e-39
0.57427227 0.2834824 0.78718615 8.3064685e-39
0.57177848 0.28618217 0.78768319 8.398304e-39
0.5685541 0.28961542 0.78753996 8.4901381e-39
0.5700357 0.28804296 0.78739023 8.398304e-39
0.56597471 0.29243851 0.78797746 9.1333425e-39
0.56290781 0.29581815 0.78752029 9.7765455e-39
0.56444174 0.29413474 0.78693968 8.7660033e-39
0.55970442 0.29934207 0.78776908 1.1154787e-38
0.56122726 0.29767075 0.78718948 1.0144245e-38
0.55700147 0.30236596 0.78748941 1.1430651e-38
0.55848837 0.30068842 0.78694212 1.0879282e-38
0.55435264 0.30539694 0.78716636 1.1614679e-38
0.55553377 0.30404305 0.78802109 1.1614679e-38
0.55186963 0.30823517 0.78774929 1.1706515e-38
0.55289185 0.30706602 0.78769708 1.1706515e-38
0.54885519 0.31175146 0.78785777 1.1706515e-38
0.55052018 0.30979604 0.78780603 1.1706515e-38
0.5471862 0.31369472 0.78792065 1.1614679e-38
0.54573447 0.31617165 0.78702849 8.3878994e-39
0.54610389 0.3189874 0.7876929 4.0508175e-39
0.54646552 0.32207495 0.78728974 3.5884003e-39
0.54685688 0.32518342 0.78685319 3.5884003e-39
0.55865318 0.32566777 0.78773105 6.1767359e-39
0.54743785 0.32840529 0.78620529 3.5884003e-39
0.62575769 0.23907083 0.78990442 5.8083247e-39
0.6195792 0.24241306 0.79053581 8.213561e-39
0.62277627 0.24069351 0.79064536 6.8260205e-39
0.6134727 0.24571684 0.7911585 8.3064685e-39
0.61640114 0.24412243 0.79042691 8.3064685e-39
0.61038917 0.24743034 0.79098922 8.3064685e-39
0.60504663 0.25169301 0.79094422 8.3064685e-39
0.60710758 0.2496268 0.79067516 8.3064685e-39
0.60243529 0.25430548 0.79034609 8.3064685e-39
0.60366082 0.2530708 0.79018795 8.3064685e-39
0.59945863 0.25730515 0.79119825 8.3064685e-39
0.6012125 0.25553736 0.79050267 8.3064685e-39
0.59620166 0.26058394 0.79020935 8.3064685e-39
0.59781796 0.25895557 0.78999966 8.3064685e-39
0.59381574 0.26302817 0.79049295 8.3064685e-39
0.59500319 0.26180589 0.79035485 8.3064685e-39
0.59024179 0.26666647 0.7909317 8.3064685e-39
0.5922184 0.26464549 0.79069442 8.3064685e-39
0.5877586 0.26924771 0.79027128 8.3064685e-39
0.58890456 0.26802689 0.7901628 8.3064685e-39
0.58069253 0.270446 0.78903371 1.0143558e-38
0.58453465 0.27275848 0.79145741 8.3064685e-39
0.58623958 0.27087328 0.79040956 8.3064685e-39
0.58189511 0.27546173 0.78991532 8.3064685e-39
0.58321524 0.27410966 0.79068488 8.3064685e-39
0.57873309 0.27894217 0.79107231 8.398304e-39
0.58030927 0.27720398 0.79049623 8.3064685e-39
0.57709616 0.28061929 0.79011172 8.3983026e-39
0.57440966 0.28345209 0.79061729 8.7656446e-39
0.57148695 0.28650236 0.79056704 9.4092049e-39
0.56866717 0.28951433 0.7902801 1.0144243e-38
0.56576139 0.29265833 0.79052895 1.1246981e-38
0.56720763 0.29108667 0.79040974 1.1246981e-38
0.56290132 0.29579771 0.7907452 1.1522485e-38
0.56411958 0.29444963 0.79157478 1.1706515e-38
0.56016093 0.2988162 0.79049063 1.1614679e-38
0.56168199 0.29714692 0.78991842 1.1614681e-38
0.55702102 0.30233333 0.79068649 1.1706515e-38
0.55849224 0.30065581 0.79015779 1.1706515e-38
0.54080456 0.30544978 0.79057389 1.0694657e-38
0.55437827 0.30535722 0.79035711 1.1706515e-38
0.55584037 0.30368659 0.78983164 1.1706515e-38
0.55131572 0.30885983 0.79050434 1.1614679e-38
0.55267483 0.30730543 0.79043889 1.1614679e-38
0.54996043 0.31040981 0.79056889 1.1155146e-38
0.54737037 0.31355765 0.79057682 1.0511584e-38
0.54542243 0.31662092 0.79059702 9.9602151e-39
0.54634333 0.31587023 0.7917136 9.3173708e-39
0.54446638 0.31895906 0.79165936 8.7656432e-39
0.62560833 0.23922735 0.79326254 5.8083247e-39
0.62027562 0.24209532 0.79306865 8.0288166e-39
0.62240255 0.2409514 0.79314601 6.8263792e-39
0.61431313 0.24544795 0.79354054 8.3064685e-39
0.61627191 0.24435696 0.79322666 8.3064685e-39
0.61838871 0.24312903 0.79383332 8.3064699e-39
0.60834599 0.24893434 0.79301018 8.3064685e-39
0.61015052 0.24808316 0.79407293 8.3064685e-39
0.6126799 0.24655491 0.79407382 8.3064685e-39
0.60561019 0.25130981 0.79358852 8.3064685e-39
0.60686845 0.25008237 0.79340595 8.3064685e-39
0.60243225 0.25444788 0.79355335 8.3064685e-39
0.60396737 0.25295305 0.79380059 8.3064685e-39
0.59927094 0.25756979 0.79352242 8.3064685e-39
0.60090059 0.25593999 0.79330975 8.3064685e-39
0.59666896 0.26014522 0.79294252 8.3064685e-39
0.59805894 0.25879127 0.79367411 8.3064685e-39
0.59308231 0.26379496 0.79337478 8.3064685e-39
0.59495282 0.2619006 0.79361057 8.3064685e-39
0.5907774 0.2662445 0.79358739 8.3064685e-39
0.59191251 0.26501447 0.79349685 8.3064685e-39
0.58747035 0.26973557 0.79483396 8.4901395e-39
0.58895832 0.26814169 0.79331267 8.3064685e-39
0.5848909 0.27246922 0.79322392 8.398304e-39
0.58640552 0.27085236 0.79308695 8.3064685e-39
0.58160627 0.27591074 0.79448354 9.0415084e-39
0.58336556 0.27407393 0.79337579 8.4901381e-39
0.57999557 0.27760193 0.79349208 9.1333411e-39
0.57739162 0.28031504 0.79353869 9.9602151e-39
0.57448089 0.28334969 0.79338914 1.0787446e-38
0.57149839 0.28649569 0.79368454 1.1522485e-38
0.56859523 0.28961691 0.79320359 1.1522485e-38
0.57003528 0.28807187 0.79380924 1.1706515e-38
0.56613469 0.29226989 0.79368705 1.1706515e-38
0.56299669 0.29567066 0.79348797 1.1706515e-38
0.56442505 0.29410779 0.79338074 1.1706515e-38
0.5597074 0.2992838 0.79418015 1.1430651e-38
0.56122202 0.29762152 0.79361582 1.1706515e-38
0.55728072 0.30202794 0.79324985 1.1155146e-38
0.55850822 0.30062807 0.79334414 1.1614679e-38
0.55440474 0.30531669 0.793531 1.0420107e-38
0.55562288 0.30392307 0.79362637 1.0603777e-38
0.55179477 0.30832738 0.79318136 9.68471e-39
0.55319744 0.306712 0.7934249 1.0052051e-38
0.55041015 0.31044203 0.79363221 8.9493142e-39
0.54808557 0.31386381 0.79298991 8.7652858e-39
0.54924786 0.31252512 0.79384148 8.4887074e-39
0.54586422 0.31704086 0.79224414 8.7660033e-39
0.54709101 0.31604043 0.79373074 8.028818e-39
0.54481304 0.31960851 0.7934078 7.843359e-39
0.54606593 0.31804353 0.79415172 7.6589747e-39
0.54280144 0.32303083 0.79350942 7.4731583e-39
0.54357094 0.32214513 0.79407388 7.1962225e-39
0.54209125 0.32476771 0.79429859 6.7338291e-39
0.62553203 0.23941039 0.79653084 5.8083247e-39
0.62736851 0.23833765 0.79584104 5.8083247e-39
0.6194098 0.2429304 0.79603779 8.2139183e-39
0.62243813 0.24116483 0.79630888 6.8260205e-39
0.61676204 0.24462898 0.79647595 8.3064685e-39
0.6106953 0.24827202 0.79637384 8.3064685e-39
0.6135844 0.24668707 0.79708833 8.3064685e-39
0.60723519 0.25038332 0.79623604 8.3064685e-39
0.60253251 0.254632 0.79664427 8.3064685e-39
0.60416758 0.2529968 0.79643697 8.3064685e-39
0.5996809 0.25732189 0.79523987 8.3064685e-39
0.60093158 0.2562727 0.79682213 8.3064685e-39
0.59630144 0.2608653 0.79650313 8.3064685e-39
0.59825301 0.2589969 0.79666793 8.3064685e-39
0.5935533 0.26335296 0.79608703 8.3064685e-39
0.59501445 0.26204163 0.79673553 8.398304e-39
0.59005475 0.26699662 0.79644716 8.6738091e-39
0.59159088 0.26537326 0.79630345 8.4901381e-39
0.58775938 0.26942229 0.79666126 8.9496729e-39
0.58890569 0.26821092 0.79655367 8.8574787e-39
0.58447218 0.27287847 0.79789859 1.1338817e-38
0.58597207 0.27131313 0.79636502 9.5928759e-39
0.5818941 0.27558804 0.79630947 1.1155146e-38
0.58342195 0.27399564 0.79615146 1.0144243e-38
0.57861912 0.27899027 0.79757035 1.1706515e-38
0.58037132 0.27717522 0.79646629 1.1246981e-38
0.57701945 0.280671 0.79658151 1.1522485e-38
0.57455248 0.28325018 0.79614669 1.1614679e-38
0.61251712 0.28405041 0.79527509 8.3064671e-39
0.57160723 0.2864019 0.79640216 1.1706515e-38
0.56869102 0.28954336 0.79664236 1.1614679e-38
0.56553102 0.2929436 0.79645145 1.1338815e-38
0.56723928 0.29110718 0.79676223 1.1706515e-38
0.56310749 0.2955507 0.79620188 1.1155146e-38
0.56414956 0.29444331 0.79791611 1.0144245e-38
0.56026214 0.29865411 0.79641479 9.9602151e-39
0.56167424 0.2971006 0.79631776 1.0603778e-38
0.55706531 0.30227301 0.79702163 8.3965159e-39
0.55851996 0.30059987 0.79651654 9.3166548e-39
0.55463785 0.30538636 0.79646337 8.1206535e-39
0.555893 0.30362007 0.79616702 8.6730944e-39
0.55356628 0.30724224 0.79656434 7.843359e-39
0.56377423 0.30791953 0.79751819 9.2219522e-39
0.55109048 0.31102329 0.79607534 7.5664232e-39
0.55249679 0.30909434 0.79666489 7.5660658e-39
0.54868442 0.31455508 0.79658097 7.2877007e-39
0.54995918 0.31313297 0.79695481 7.1033136e-39
0.54739243 0.3167645 0.79608977 7.1029563e-39
0.54501188 0.32004362 0.79637361 6.733113e-39
0.54626709 0.31904322 0.79605365 6.6405642e-39
0.54280573 0.32390577 0.79563034 7.0093328e-39
0.54386008 0.32180974 0.79658508 6.8245898e-39
0.54155642 0.32575139 0.79630727 3.5884003e-39
0.54163665 0.32750994 0.79692471 3.5884003e-39
0.62312835 0.23989791 0.79988581 7.5618115e-39
0.62623703 0.2389172 0.80009794 8.0210198e-39
0.61996561 0.24256304 0.79868412 8.1210123e-39
0.62154561 0.24123168 0.79928446 7.842301e-39
0.6140362 0.24570502 0.80017555 8.4901395e-39
0.61560082 0.24438491 0.80077338 8.4901395e-39
0.61838841 0.24389204 0.79808497 8.3057538e-39
0.61091518 0.24833821 0.79898322 8.4901395e-39
0.61247432 0.24702278 0.79957885 8.4901395e-39
0.60561287 0.25182089 0.79889178 8.3064685e-39
0.60724807 0.25054854 0.79939806 8.3064685e-39
0.60926104 0.24961387 0.79848427 8.3064685e-39
0.6175797 0.24941611 0.79994392 8.7642335e-39
0.60298419 0.25440484 0.79831457 8.3064685e-39
0.60427552 0.25337186 0.79985666 8.398304e-39
0.60160851 0.25611195 0.79967535 8.3983026e-39
0.59671098 0.2606146 0.79821014 8.581975e-39
0.59840924 0.25918606 0.79968482 8.7656432e-39
0.5950911 0.26218763 0.7998302 9.68471e-39
0.59048355 0.26653191 0.79918522 1.0327913e-38
0.59233987 0.2646558 0.79942518 9.9605738e-39
0.58857316 0.26855075 0.79935843 1.1155146e-38
0.58475631 0.2725597 0.79971975 1.1706515e-38
0.58628607 0.27096239 0.79956883 1.1522485e-38
0.58147168 0.27597356 0.80096561 1.1706515e-38
0.58296758 0.2744298 0.79943621 1.1614679e-38
0.57890928 0.27866542 0.79938281 1.1706515e-38
0.58042455 0.27708599 0.79923028 1.1706515e-38
0.57741171 0.28024551 0.79952091 1.1706515e-38
0.57438749 0.28344968 0.7994892 1.1522485e-38
0.57161611 0.28642792 0.79956138 1.1062951e-38
0.56849623 0.28977826 0.79913682 1.0511943e-38
0.57005882 0.28811187 0.8001343 1.0236079e-38
0.56591481 0.29256192 0.79956728 9.2248193e-39
0.56277716 0.29593647 0.79937047 8.3957999e-39
0.56447381 0.2941134 0.79968297 8.6730944e-39
0.55989617 0.29924724 0.79962158 7.3802495e-39
0.56130689 0.29761824 0.79987681 7.5657071e-39
0.55754715 0.30208495 0.79931974 7.1029619e-39
0.55857158 0.30059087 0.79963046 7.1951575e-39
0.5542416 0.30584371 0.80005854 6.916784e-39
0.55581462 0.30425313 0.79942036 7.0104104e-39
0.55318069 0.30795527 0.79909468 7.101527e-39
0.55062014 0.31069648 0.79975605 6.5476554e-39
0.552118 0.31006712 0.79813337 7.28627e-39
0.54881781 0.31311172 0.79960549 6.4547479e-39
0.54522979 0.31791973 0.7993058 6.0856192e-39
0.54702103 0.31551945 0.79945534 6.2700035e-39
0.54374665 0.31964436 0.80022842 4.3295736e-39
0.542494 0.32317227 0.79809207 3.5884003e-39
0.54334188 0.32196969 0.79997092 3.5884003e-39
0.54265767 0.32512349 0.79896683 3.5884003e-39
0.54248124 0.32786739 0.79916114 3.5884003e-39
0.62359172 0.23969083 0.80155492 9.7730941e-39
0.62514555 0.23968792 0.80323929 1.3368726e-38
0.62824702 0.23888893 0.80241656 1.0141878e-38
0.61960185 0.24110192 0.80219913 8.8585717e-39
0.62146378 0.24045198 0.80357748 9.7769883e-39
0.62779152 0.2400737 0.80389678 1.6411541e-38
0.61283886 0.24487324 0.80343705 8.7660019e-39
0.61716825 0.24306248 0.80137217 8.4897808e-39
0.60857892 0.24895887 0.80126113 8.3064685e-39
0.61020815 0.24748309 0.80283189 8.4901381e-39
0.60728395 0.25072065 0.80252355 8.6738091e-39
0.60496658 0.25322387 0.80268651 9.5010404e-39
0.60105789 0.2569817 0.80232447 1.0236078e-38
0.60308206 0.25513491 0.80243373 9.7765455e-39
0.59847665 0.25934011 0.80277365 1.124698e-38
0.59368485 0.26362631 0.80228704 1.1522486e-38
0.59559375 0.2619434 0.80283475 1.1522485e-38
0.5909341 0.26607859 0.80189073 1.1614679e-38
0.59187818 0.26530764 0.80304372 1.1706515e-38
0.58747667 0.26969051 0.80221987 1.1706515e-38
0.58926499 0.26780576 0.80251718 1.1614679e-38
0.5855673 0.27168664 0.80240136 1.1706515e-38
0.58178955 0.27566665 0.80274135 1.1614679e-38
0.58329266 0.27407596 0.80261022 1.1614679e-38
0.58002424 0.27752733 0.80244482 1.124698e-38
