# .PCD v0.7 - Point Cloud Data file format
VERSION 0.7
FIELDS x y z rgb
SIZE 4 4 4 4
TYPE F F F F
COUNT 1 1 1 1
WIDTH 953
HEIGHT 1
VIEWPOINT 0 0 0 1 0 0 0
POINTS 953
DATA ascii
0.38499424 0.19619673 0.63535774 7.7444329e-39
0.45461744 0.2023036 0.63536239 5.1622364e-39
0.43774927 0.22479534 0.63591033 5.4409939e-39
0.42819887 0.23931067 0.63564652 5.811224e-39
0.42962641 0.24985632 0.63596499 5.0689548e-39
0.45620346 0.20060417 0.63836181 5.5321007e-39
0.45900238 0.19980636 0.63649827 5.2533446e-39
0.45255029 0.20316963 0.63744444 5.8115855e-39
0.45434457 0.20177113 0.63866216 7.2896079e-39
0.45093784 0.20517761 0.63734692 5.9045014e-39
0.44862798 0.20845075 0.63797492 6.089257e-39
0.44630298 0.21217005 0.63722163 5.8115855e-39
0.44460261 0.21485524 0.63730466 5.9041427e-39
0.44290861 0.21753235 0.63738573 5.9045028e-39
0.4404861 0.22100817 0.63779396 5.9974215e-39
0.44172978 0.21928833 0.63753164 6.0896171e-39
0.43796289 0.22441293 0.63839847 6.1821757e-39
0.4388209 0.22333765 0.63689399 5.9045028e-39
0.43628463 0.22672351 0.63753372 5.9966998e-39
0.43359783 0.23042174 0.6375072 5.9974215e-39
0.4350512 0.22842413 0.63780117 6.0896185e-39
0.43145776 0.23379819 0.63700569 5.9037811e-39
0.43252417 0.23186681 0.63654333 5.7186654e-39
0.43044883 0.23575115 0.63737088 6.0899787e-39
0.42862099 0.23900525 0.6377691 6.1821757e-39
0.42923129 0.23785204 0.63667405 6.0896185e-39
0.42721716 0.2417329 0.63741499 6.0899801e-39
0.42687899 0.24449085 0.63802421 6.1821757e-39
0.42838886 0.2472437 0.63674664 5.8104981e-39
0.43060309 0.25131536 0.63709515 5.4388205e-39
0.43157965 0.25277418 0.63822514 5.9005217e-39
0.45771205 0.20059109 0.6400702 7.1044935e-39
0.46000195 0.19938262 0.64047903 8.3919729e-39
0.45448723 0.20255108 0.64030701 7.2896079e-39
0.45637244 0.20176175 0.64090216 6.458764e-39
0.4497366 0.20670216 0.64080864 6.1821757e-39
0.45148388 0.20476314 0.64067018 6.7357124e-39
0.44842249 0.20881787 0.6402173 6.1821757e-39
0.44642419 0.21212316 0.6408022 6.1821757e-39
0.44724947 0.21077067 0.64080429 6.1821757e-39
0.44529751 0.21391088 0.64084572 6.1821757e-39
0.44278631 0.21750818 0.64044589 6.1821757e-39
0.44002473 0.22146608 0.64049834 6.1821757e-39
0.44105577 0.21999244 0.64154851 6.1821757e-39
0.43877855 0.22317153 0.64077264 6.1821757e-39
0.43672571 0.22603801 0.6405676 6.1821757e-39
0.43410194 0.22975969 0.64042991 6.1821757e-39
0.4352954 0.22804941 0.64022934 6.1821757e-39
0.43176091 0.23318693 0.64076555 6.1821757e-39
0.43263501 0.23190272 0.64064324 6.1821757e-39
0.43053064 0.23527721 0.64009309 6.1821757e-39
0.42833072 0.2390613 0.64115709 6.1821757e-39
0.42938095 0.23740777 0.63927978 6.1821757e-39
0.42780486 0.24159411 0.64037991 6.1821757e-39
0.42787898 0.24495444 0.64053375 6.1821757e-39
0.42848468 0.24794611 0.6408819 6.2725594e-39
0.43152499 0.25365937 0.64118397 5.8083261e-39
0.43327463 0.25554731 0.64094019 6.1771086e-39
0.46030092 0.20011927 0.64349377 7.1956046e-39
0.46249676 0.19914803 0.64476669 8.8540343e-39
0.45489335 0.20340738 0.64337885 6.2743727e-39
0.45715055 0.2020226 0.64335155 6.458764e-39
0.45140898 0.20555043 0.64361638 6.2743713e-39
0.45359045 0.20404123 0.64275426 6.458764e-39
0.47252986 0.20446479 0.64223719 6.3651194e-39
0.4489162 0.20819819 0.64314312 6.1821757e-39
0.44672674 0.21180931 0.64311177 6.1821757e-39
0.44769031 0.21029831 0.64428806 6.1821757e-39
0.44390929 0.21591917 0.64228845 6.1821757e-39
0.44508362 0.21435334 0.64404017 6.1821757e-39
0.44253984 0.2179227 0.64370257 6.1821757e-39
0.44025201 0.22109921 0.64294159 6.1821757e-39
0.44133508 0.21965325 0.64389682 6.1821757e-39
0.43773383 0.22481604 0.64448428 6.1821757e-39
0.43899074 0.22296086 0.64371431 6.1821757e-39
0.43639255 0.22661747 0.64328295 6.1821757e-39
0.43433303 0.22953945 0.64334482 6.1821757e-39
0.43131089 0.23391889 0.64441001 6.1821757e-39
0.43256369 0.23209792 0.64361858 6.1821757e-39
0.43007153 0.23575613 0.64305043 6.1821757e-39
0.42868742 0.23872496 0.64337516 6.1821757e-39
0.42877156 0.24169835 0.64322531 6.1821757e-39
0.42885575 0.24467295 0.64307541 6.1821757e-39
0.42893991 0.24764875 0.6429255 6.1821757e-39
0.42939818 0.25055641 0.64353436 6.1818142e-39
0.43129426 0.25297505 0.64443946 6.4551388e-39
0.43316215 0.25492519 0.64398414 6.5462513e-39
0.43503791 0.2568835 0.64352691 6.5458883e-39
0.43909073 0.25950152 0.64212346 6.452971e-39
0.46149355 0.20025519 0.64641488 6.1821757e-39
0.4633249 0.19906922 0.64619648 8.4856147e-39
0.45523947 0.20366821 0.64699966 6.1821757e-39
0.45776716 0.20221846 0.6460582 6.2743713e-39
0.45949399 0.20136631 0.64692104 6.1821757e-39
0.45148858 0.20565331 0.64628834 6.1821757e-39
0.44924918 0.20825672 0.64632618 6.1821757e-39
0.44636536 0.21268968 0.64654082 6.1821757e-39
0.44752359 0.2109222 0.64644367 6.1821757e-39
0.44516349 0.21443208 0.64671582 6.1821757e-39
0.44312334 0.21732679 0.64645779 6.1821757e-39
0.44049653 0.22107737 0.64628363 6.1821757e-39
0.44168943 0.21935037 0.64610648 6.1821757e-39
0.43870535 0.22365682 0.64656168 6.1821757e-39
0.43690696 0.22622001 0.6468628 6.1821757e-39
0.43392777 0.23014908 0.64641541 6.1821757e-39
0.43519139 0.22848581 0.64608961 6.1821757e-39
0.43152505 0.23352002 0.64686561 6.1821757e-39
0.43240324 0.23224747 0.64673358 6.1821757e-39
0.43024063 0.23556778 0.64630097 6.1821757e-39
0.42856061 0.23886716 0.64644212 6.1821757e-39
0.42924833 0.23750579 0.64663899 6.1821757e-39
0.42808598 0.24007697 0.64728403 6.1821757e-39
0.42785394 0.24578606 0.64769554 6.1821757e-39
0.42849833 0.2475955 0.64655256 6.1821757e-39
0.4298985 0.24994749 0.6459617 6.365118e-39
0.43278944 0.25370619 0.64605719 7.0068665e-39
0.43498528 0.25629419 0.64644957 6.9146722e-39
0.46395522 0.1987108 0.64933264 9.9571294e-39
0.46593773 0.19888535 0.65026295 9.1273674e-39
0.45111302 0.20630752 0.64970928 6.1821757e-39
0.45354736 0.20467076 0.64842606 6.1821757e-39
0.44899854 0.20919915 0.649544 6.1821757e-39
0.45027447 0.20712574 0.6483283 6.1821757e-39
0.44672734 0.21240319 0.64872688 6.1821757e-39
0.44744512 0.21153367 0.65030408 6.1821757e-39
0.44546902 0.21428922 0.64946342 6.1821757e-39
0.42629331 0.21897162 0.64951897 4.7909217e-39
0.44313005 0.2176079 0.64925069 6.1821757e-39
0.44421118 0.21616708 0.65020359 6.1821757e-39
0.44042709 0.22147897 0.64967811 6.1821757e-39
0.44169301 0.21962383 0.64890856 6.1821757e-39
0.43901032 0.22349057 0.6493144 6.1821757e-39
0.43671584 0.22662054 0.65000677 6.1821757e-39
0.43416768 0.22993387 0.64928514 6.1821757e-39
0.4355073 0.22814958 0.64835823 6.1821757e-39
0.43173856 0.23312266 0.64931184 6.1821757e-39
0.43283427 0.23171169 0.65020663 6.1821757e-39
0.43080783 0.23493411 0.64906752 6.1821757e-39
0.42874375 0.23917055 0.64894593 6.1821757e-39
0.42960727 0.23764542 0.65024114 6.1821757e-39
0.42764068 0.24176297 0.64948535 6.1821757e-39
0.42726111 0.24374211 0.65015769 6.1821757e-39
0.43642342 0.25744775 0.6495775 6.915031e-39
0.45689553 0.19990826 0.65396941 6.5505967e-39
0.46040544 0.19921026 0.65235662 9.0377053e-39
0.46303034 0.19944242 0.65359455 9.0355319e-39
0.45288026 0.20397112 0.6523149 6.1821757e-39
0.45478934 0.20190224 0.65330088 6.1821757e-39
0.45119461 0.20591483 0.65235078 6.1821757e-39
0.44944164 0.2085626 0.65250808 6.1821757e-39
0.44770628 0.21120644 0.65264523 6.1821757e-39
0.44545287 0.21456985 0.65227747 6.1821757e-39
0.44331291 0.21757221 0.6526584 6.1821757e-39
0.44086862 0.22098178 0.65311056 6.1821757e-39
0.44164687 0.21987423 0.65178221 6.1821757e-39
0.43798083 0.22496223 0.65248519 6.1821757e-39
0.43921125 0.22327594 0.6522311 6.1821757e-39
0.4367381 0.22663601 0.6527645 6.1821757e-39
0.4340986 0.23013633 0.65220863 6.1821757e-39
0.43504143 0.22889473 0.65197277 6.1821757e-39
0.43156087 0.23398653 0.65243053 6.1821757e-39
0.43254748 0.23220704 0.65257555 6.1821757e-39
0.43069625 0.23598228 0.65254092 6.1821757e-39
0.42892897 0.2394751 0.65143496 6.1821757e-39
0.429795 0.23868203 0.6527195 6.1821757e-39
0.42868304 0.24152645 0.65186787 6.1821757e-39
0.42946652 0.2414166 0.65329552 6.1821757e-39
0.42806706 0.24452263 0.65201664 6.1821757e-39
0.4292205 0.24346484 0.65372688 6.1821757e-39
0.42779458 0.24679552 0.65249652 6.1821757e-39
0.42778355 0.24902789 0.65345109 6.2743699e-39
0.43124723 0.25275302 0.65297848 6.1785547e-39
0.43382543 0.25509143 0.65128452 6.3622187e-39
0.4360854 0.25670201 0.65296096 6.730281e-39
0.45575172 0.20093267 0.65584886 6.1821757e-39
0.45740533 0.19970541 0.65588534 7.656217e-39
0.46632156 0.19973354 0.65514678 4.978564e-39
0.46896142 0.19996703 0.65639174 4.8863684e-39
0.45288026 0.20355129 0.65507811 6.1821757e-39
0.45414954 0.20217553 0.65573531 6.1821757e-39
0.45149469 0.20522828 0.65553641 6.4584011e-39
0.44957474 0.20818721 0.65505314 6.1821757e-39
0.45010185 0.20724465 0.65693218 7.195243e-39
0.44652486 0.21290173 0.65463114 6.1821757e-39
0.44783312 0.21082219 0.65520161 6.1821757e-39
0.44530812 0.214793 0.65529478 6.1821757e-39
0.44299197 0.21810041 0.65505391 6.1821757e-39
0.44406867 0.2166657 0.65600145 6.1821757e-39
0.4403367 0.22173046 0.65679157 6.1821757e-39
0.44176355 0.21979874 0.65528947 6.1821757e-39
0.4392201 0.22329383 0.65500015 6.1821757e-39
0.43121302 0.22641973 0.65570438 2.4922247e-39
0.43691933 0.22640409 0.6557011 6.1821757e-39
0.43453586 0.22961347 0.65563631 6.1821757e-39
0.43545482 0.22836408 0.65544021 6.2743699e-39
0.43193817 0.23367386 0.65456814 6.1821757e-39
0.43307373 0.23156309 0.65538323 6.1821757e-39
0.43162343 0.23569438 0.65511572 6.2740112e-39
0.43071821 0.23823281 0.65483254 6.2743699e-39
0.43009877 0.24122715 0.65498435 6.2740112e-39
0.42922488 0.24392891 0.65511554 6.1821757e-39
0.42825603 0.24729465 0.65541786 6.826822e-39
0.42852366 0.25034121 0.65494865 6.2732839e-39
0.45734167 0.20001484 0.65873021 7.7480511e-39
0.45297074 0.20317084 0.65767938 7.1034075e-39
0.45451045 0.20226455 0.65880138 6.8271808e-39
0.45113972 0.20563956 0.65887499 9.2220951e-39
0.44870663 0.20924699 0.65833497 7.4714684e-39
0.44675222 0.21233772 0.65838683 6.4584011e-39
0.44758046 0.21101071 0.65837991 6.4584011e-39
0.44536945 0.2145419 0.65840989 6.3665656e-39
0.44301233 0.21798779 0.65870196 6.1821757e-39
0.44424826 0.21629371 0.65845788 6.1821757e-39
0.44052619 0.22135198 0.65923059 6.1821757e-39
0.44136053 0.22027953 0.65781736 6.1821757e-39
0.4389044 0.22364576 0.65830654 6.1821757e-39
0.43674546 0.22656634 0.65876859 6.9190163e-39
0.41275305 0.2285185 0.65729892 1.0694693e-38
0.43414012 0.23005943 0.65816814 8.1164734e-39
0.43234912 0.23256236 0.65848809 8.3927002e-39
0.43118086 0.23568439 0.65866393 8.3005046e-39
0.43028718 0.23935595 0.65744072 6.9190163e-39
0.42892337 0.24225327 0.65981364 7.7480539e-39
0.42952174 0.2411253 0.65877253 6.826822e-39
0.42857623 0.24476247 0.65764368 7.1034061e-39
0.42790645 0.24729094 0.65881348 7.0112119e-39
0.42887747 0.24972053 0.65850592 6.3658411e-39
0.4304058 0.25146618 0.65862125 5.9956096e-39
0.43182296 0.25342655 0.65755105 5.8094051e-39
0.43205333 0.25300634 0.6599226 5.9934362e-39
0.45487389 0.18390994 0.6612978 1.0694693e-38
0.45819941 0.19975048 0.66142756 8.5770859e-39
0.45506367 0.20243311 0.66153699 6.5505967e-39
0.45177984 0.20541579 0.66101134 9.1295408e-39
0.45342851 0.20400284 0.6623944 7.4718271e-39
0.44900742 0.20855515 0.66148973 9.7745472e-39
0.4469167 0.21174954 0.66222548 9.0377053e-39
0.44771463 0.21063215 0.6608994 7.9324437e-39
0.44520262 0.2145081 0.66143507 7.6558582e-39
0.44305381 0.2177186 0.66183686 5.7208416e-39
0.44072348 0.2209789 0.66164601 5.5364532e-39
0.44164038 0.21971607 0.66147059 5.4442575e-39
0.43789572 0.2249487 0.66094196 5.9059517e-39
0.43952215 0.22266753 0.66184616 5.2598691e-39
0.43656385 0.22672485 0.66183406 6.9190177e-39
0.43455535 0.22936916 0.66113812 9.4061249e-39
0.43518811 0.22847004 0.66280627 7.8395306e-39
0.43136197 0.23382653 0.66111618 9.6823516e-39
0.43266746 0.2318176 0.66162407 9.2220951e-39
0.43054497 0.23557499 0.66252691 9.3139306e-39
0.4298678 0.23862113 0.66093981 8.4848944e-39
0.42897129 0.24031509 0.66249365 9.313932e-39
0.42802927 0.24393874 0.66136932 8.0242792e-39
0.42843926 0.24710692 0.66157693 6.1821757e-39
0.42988694 0.24991497 0.66228652 6.0896171e-39
0.43351424 0.25471807 0.66016757 5.9941593e-39
0.43493992 0.25641212 0.66047919 6.1774659e-39
0.43699145 0.25790429 0.66247952 6.1774659e-39
0.45810738 0.20004907 0.66428959 7.7476909e-39
0.46006986 0.1989513 0.66383362 9.7741815e-39
0.45407858 0.20291264 0.6654067 6.1821757e-39
0.45629424 0.20119944 0.66451478 6.1821757e-39
0.45144582 0.20559029 0.66428357 6.3662068e-39
0.44932872 0.20826361 0.66368598 7.8398894e-39
0.45006728 0.20741956 0.66518819 6.2743699e-39
0.44638082 0.21275717 0.66447759 8.5770887e-39
0.44781342 0.21058299 0.66437364 9.0377053e-39
0.44497022 0.21493267 0.66455251 6.1814596e-39
0.44322887 0.21751146 0.66473079 3.2315848e-39
0.4406234 0.22119525 0.66455114 2.4918688e-39
0.44203854 0.21921073 0.66490495 2.0326941e-39
0.43861222 0.22401704 0.6642974 2.5880189e-39
0.4367764 0.22650982 0.66467088 2.589458e-39
0.43372717 0.23032157 0.66438657 6.7346278e-39
0.43547326 0.22812563 0.665061 3.6936364e-39
0.43165746 0.23322704 0.66473269 7.1956018e-39
0.4324742 0.23194861 0.66470397 6.3662068e-39
0.43080586 0.23520446 0.66482592 7.563664e-39
0.4288727 0.23974645 0.66541415 7.6558582e-39
0.42957443 0.23795566 0.66420257 9.6823516e-39
0.42807913 0.24200094 0.66403997 7.9320836e-39
0.42842698 0.24512863 0.66435373 6.1821757e-39
0.42992905 0.24828923 0.66450596 5.99706e-39
0.43144286 0.25113153 0.6651023 4.8878131e-39
0.43141925 0.25211042 0.66377091 5.2555124e-39
0.43244106 0.25357443 0.66476071 4.057328e-39
0.43381768 0.25523621 0.66514534 5.8094079e-39
0.45754004 0.20089021 0.66790414 6.2743699e-39
0.46047086 0.1992479 0.66724074 8.760754e-39
0.46371189 0.19879535 0.66879523 7.9306318e-39
0.45435125 0.20261198 0.66766721 6.1821757e-39
0.45164147 0.20542674 0.66712397 6.1821757e-39
0.44924989 0.20887864 0.66743302 6.2740112e-39
0.45045745 0.20716062 0.66725749 6.1821757e-39
0.44691098 0.21233201 0.66767347 6.2743713e-39
0.4477334 0.21101582 0.66767031 6.4584011e-39
0.44549495 0.21433066 0.66730469 5.1698314e-39
0.44283742 0.21816695 0.66764998 1.3023276e-39
0.44410563 0.21633743 0.66689694 1.854058e-39
0.44054401 0.2214212 0.66740763 1.7557499e-39
0.44143185 0.22015393 0.66727936 1.0289791e-39
0.43936014 0.22310609 0.66758066 1.4827615e-39
0.43682995 0.22653897 0.66730994 1.3941617e-39
0.43803376 0.2250419 0.66890413 1.4831217e-39
0.43426156 0.22969444 0.66712117 4.6137864e-39
0.43501604 0.22886135 0.66856384 2.035571e-39
0.43266597 0.23186673 0.66802001 6.0896213e-39
0.43074355 0.2353878 0.66766924 6.2743699e-39
0.42894781 0.23927163 0.66802168 6.1821757e-39
0.42981753 0.2375719 0.66652584 6.8271808e-39
0.42847496 0.2414314 0.66746873 6.2740112e-39
0.42865372 0.24406914 0.66761678 6.1821757e-39
0.42899156 0.24646603 0.66794646 6.1821757e-39
0.44186842 0.26076815 0.66790855 6.7306411e-39
0.45832843 0.20060128 0.67066789 6.5505953e-39
0.46010906 0.19944172 0.67050231 8.2075775e-39
0.46680242 0.19921646 0.66927135 7.5600431e-39
0.4691658 0.19954772 0.66957319 7.2838149e-39
0.45278901 0.20395818 0.67154109 6.1821757e-39
0.45474395 0.20253853 0.67017072 6.1821757e-39
0.45640075 0.20169437 0.67107916 6.1821757e-39
0.45158863 0.20547237 0.66990781 6.1821757e-39
0.44924319 0.20862004 0.67059147 6.1821757e-39
0.44746372 0.21119231 0.67081308 6.0899815e-39
0.44562808 0.21419972 0.67046344 4.8910894e-39
0.44315568 0.21802557 0.67027789 1.573518e-39
0.44444394 0.21604197 0.66904467 9.407393e-40
0.44086981 0.22111133 0.6695745 1.6646347e-39
0.4416078 0.22027093 0.67104781 1.572439e-39
0.43919739 0.22352447 0.67056519 1.573518e-39
0.43664756 0.22693603 0.67033172 1.4824014e-39
0.43455705 0.22983235 0.67069674 3.7829565e-39
0.43552011 0.22862622 0.67042601 2.1259674e-39
0.43168765 0.23368555 0.67014015 6.1821757e-39
0.4331044 0.23190987 0.67089862 5.9977858e-39
0.43049264 0.23547497 0.67082071 6.1821757e-39
0.42955223 0.23842841 0.67061615 6.1821757e-39
0.42961109 0.24099883 0.67096829 6.1821757e-39
0.42970484 0.24428868 0.67107928 6.1821757e-39
0.42970839 0.24710374 0.67034847 6.1821757e-39
0.4297725 0.24922685 0.66933292 6.1821757e-39
0.43079257 0.25211775 0.67030877 5.9034126e-39
0.43270546 0.25407133 0.66976702 5.7179339e-39
0.43462694 0.25603366 0.66922289 5.8094051e-39
0.45851272 0.20027258 0.67304695 7.378907e-39
0.46029031 0.19911455 0.67288595 9.0369752e-39
0.45402375 0.2031194 0.6735642 6.2740112e-39
0.45674115 0.20142652 0.67320752 6.6427909e-39
0.45129582 0.20590432 0.6730656 6.1821757e-39
0.44937456 0.20842147 0.67350793 6.1821757e-39
0.4465642 0.21275836 0.67362976 6.0899801e-39
0.44763517 0.21100391 0.67366457 6.1821757e-39
0.48198622 0.21245961 0.67471534 8.1143e-39
0.44549546 0.21450925 0.67359358 4.8907292e-39
0.44330996 0.21797675 0.67361242 2.1216514e-39
0.44413674 0.21668208 0.67359078 2.030176e-39
0.44040596 0.22187769 0.67304516 2.0298159e-39
0.44207576 0.21963795 0.67386031 2.3056783e-39
0.43914852 0.22351581 0.67334312 1.9379818e-39
0.43727866 0.22596939 0.67377287 1.8457875e-39
0.4344421 0.23000813 0.67359483 4.0602581e-39
0.4357059 0.22823614 0.67281717 2.2145673e-39
0.4327009 0.23249251 0.67383575 5.9977858e-39
0.43086556 0.23539783 0.67357117 6.1821757e-39
0.43283355 0.23545152 0.67277408 6.1821757e-39
0.42994261 0.23843007 0.67356342 6.1821757e-39
0.4297643 0.24173573 0.67476791 6.1821757e-39
0.42979848 0.24870695 0.67200553 6.1821757e-39
0.42978454 0.25012961 0.67202932 6.1821757e-39
0.43174183 0.25299424 0.67410988 6.1792764e-39
0.43412048 0.25520557 0.67278785 6.178189e-39
0.43604261 0.25716794 0.67225122 6.0856304e-39
0.47924462 0.18229404 0.67603749 5.0751205e-39
0.4586727 0.19993563 0.67545468 8.0235477e-39
0.46035299 0.19909716 0.67633218 9.3135635e-39
0.46210063 0.19864228 0.67798924 9.6823446e-39
0.45410553 0.2029181 0.67653972 7.2874372e-39
0.45690203 0.20108709 0.67561436 8.3008619e-39
0.45215026 0.20508279 0.67613381 6.3662068e-39
0.44904351 0.20930529 0.67671508 6.2740112e-39
0.45059308 0.20719749 0.67642623 6.2740112e-39
0.44683611 0.21244219 0.67586017 6.0899815e-39
0.44780701 0.21098687 0.67694616 6.1821757e-39
0.44565767 0.21430877 0.67644906 5.2591488e-39
0.443073 0.21813893 0.67667979 4.2381557e-39
0.44442117 0.21614137 0.67713749 2.7666522e-39
0.44069356 0.22132167 0.6765908 3.2258199e-39
0.4416303 0.22008952 0.6763826 3.4098496e-39
0.43923855 0.22325525 0.67632544 3.685712e-39
0.43668991 0.22668435 0.67654729 1.9379818e-39
0.43428123 0.23016027 0.67655373 4.7056233e-39
0.43513364 0.22890906 0.67646748 2.4915101e-39
0.43173105 0.23389909 0.67681956 6.1821757e-39
0.43286273 0.23223947 0.67670178 6.1821757e-39
0.43103635 0.23593238 0.67664909 6.1821757e-39
0.43071416 0.23846383 0.67674631 6.1821757e-39
0.43026555 0.24148658 0.67661035 6.1821757e-39
0.42965353 0.24426943 0.67630213 6.1821757e-39
0.42924485 0.24716082 0.67565113 6.1821757e-39
0.429263 0.25008035 0.67651683 6.365481e-39
0.4327265 0.25388876 0.67782545 6.3633061e-39
0.43516117 0.25613043 0.67642134 6.54661e-39
0.4573946 0.20068237 0.67880696 9.1298995e-39
0.46031743 0.19959635 0.67947173 7.8387991e-39
0.46324274 0.19850187 0.68015468 9.2213665e-39
0.45499006 0.20211713 0.67954332 9.221735e-39
0.45171538 0.20593691 0.67948657 8.5770901e-39
0.45303607 0.20427884 0.6791358 9.8667415e-39
0.44912136 0.20925406 0.68012929 8.9455096e-39
0.4500342 0.20819877 0.67865765 7.1034075e-39
0.44750336 0.21153064 0.67921042 7.8402481e-39
0.44548965 0.21451516 0.67938459 5.9952677e-39
0.44347548 0.21748465 0.67957097 4.8820762e-39
0.44165555 0.21997367 0.67989469 5.0661045e-39
0.43907803 0.22343163 0.67926157 3.6860708e-39
0.4369832 0.2263152 0.67962176 2.8577632e-39
0.43469852 0.22964279 0.67986917 4.4276029e-39
0.43555382 0.22839695 0.67977595 2.4907912e-39
0.4319908 0.23353744 0.67906201 6.7346278e-39
0.43334198 0.23159055 0.67946768 8.1161147e-39
0.43127513 0.23530704 0.68026507 8.3930589e-39
0.4298557 0.23933704 0.67998409 6.9190177e-39
0.42865038 0.24560194 0.6793462 7.0112119e-39
0.42841312 0.24760261 0.67974806 6.1818142e-39
0.43054557 0.25114143 0.67971158 6.0870794e-39
0.41959393 0.25533345 0.68092573 4.5089104e-39
0.43620443 0.25705522 0.68002737 7.0075881e-39
0.45844615 0.20050526 0.68110144 7.2874372e-39
0.46072149 0.19964786 0.68278384 7.0101245e-39
0.46417117 0.19827844 0.68264627 9.4979533e-39
0.4674927 0.198797 0.682742 8.5745537e-39
0.45427296 0.20324545 0.68244177 7.840611e-39
0.45678052 0.20148756 0.68241394 7.47219e-39
0.45174652 0.20570679 0.68251717 9.0377053e-39
0.44938439 0.20894305 0.68234783 9.8663827e-39
0.45028782 0.20767516 0.68221533 9.5905161e-39
0.44671366 0.21274608 0.68269217 8.3927002e-39
0.44819513 0.21063538 0.68250185 9.4061263e-39
0.44527379 0.21486616 0.682823 6.2700469e-39
0.44307852 0.21796322 0.68198717 4.3299912e-39
0.44408584 0.2165406 0.68299091 5.7107453e-39
0.44036606 0.22168604 0.68245131 2.2134854e-39
0.44177222 0.21973807 0.68279672 4.1459629e-39
0.43886146 0.22374217 0.68271685 3.7779063e-39
0.43679309 0.22670262 0.68259591 2.9499589e-39
0.43440929 0.23012866 0.68212515 6.2715001e-39
0.43280038 0.23265475 0.68214959 9.3139306e-39
0.43142208 0.23559557 0.68268257 9.958577e-39
0.43228143 0.23412248 0.68390131 7.9324437e-39
0.43008772 0.23824291 0.68226105 8.1164734e-39
0.42851973 0.24146934 0.68223834 6.826822e-39
0.42914212 0.24058087 0.68385059 7.3796329e-39
0.42777726 0.24390244 0.68349111 7.8398852e-39
0.42852479 0.2464283 0.6822297 6.2736469e-39
0.4294529 0.24808744 0.68199658 6.0881668e-39
0.43092331 0.25016585 0.68263191 5.9016021e-39
0.4331497 0.25375903 0.68245244 6.3625789e-39
0.48312786 0.18897223 0.68633199 4.8776929e-39
0.46013343 0.2001867 0.68500936 6.7353495e-39
0.46340737 0.19868959 0.68557292 8.8525867e-39
0.45491821 0.20362538 0.68535435 6.3669271e-39
0.45754474 0.20191999 0.68514335 6.458764e-39
0.45196414 0.2055556 0.68523473 6.6427909e-39
0.45345753 0.20466948 0.68635583 6.1821757e-39
0.44922024 0.20916924 0.68524122 6.5505967e-39
0.45057261 0.20716798 0.68570334 6.1821757e-39
0.44744855 0.21170211 0.68545699 6.3662068e-39
0.44570151 0.21423391 0.68564266 5.536093e-39
0.44309542 0.21785234 0.6854766 3.4098496e-39
0.44429368 0.21619193 0.68528879 6.1713563e-39
0.44070607 0.22116019 0.68585563 2.1216514e-39
0.44160029 0.21992183 0.68571335 2.5815421e-39
0.43931571 0.22310331 0.68549383 2.3978725e-39
0.43710521 0.22630492 0.68516678 4.0541274e-39
0.43454117 0.2300272 0.68543893 4.3368436e-39
0.43539482 0.22878926 0.68534648 2.859208e-39
0.43335187 0.23227853 0.68542886 6.1821757e-39
0.43154728 0.2358734 0.68512607 7.6558582e-39
0.43206406 0.23493658 0.68690801 6.3665656e-39
0.43037048 0.23819304 0.6853261 9.3139306e-39
0.42828885 0.2422478 0.68528485 9.2220951e-39
0.42935222 0.24018374 0.6861487 9.7745472e-39
0.42746538 0.24392301 0.68666905 6.365481e-39
0.42874962 0.24602741 0.68451035 6.3643949e-39
0.43024543 0.24817514 0.68597698 6.3633033e-39
0.43200195 0.25099555 0.6843676 5.9012406e-39
0.43354395 0.25317341 0.68577087 6.0859906e-39
0.43599066 0.25656515 0.68568373 6.3622187e-39
0.46135545 0.20008084 0.68701786 6.7353495e-39
0.46291569 0.19938236 0.68850052 7.3792657e-39
0.45590651 0.20342311 0.68771476 6.1821757e-39
0.4575429 0.20259023 0.68862146 6.1821757e-39
0.4598552 0.20113005 0.68804836 6.1821757e-39
0.45176947 0.2061232 0.68902695 6.1821757e-39
0.45442587 0.20445856 0.68873954 6.1821757e-39
0.44947544 0.20847769 0.68832207 6.1821757e-39
0.4477663 0.21103139 0.68843794 6.1821757e-39
0.44553438 0.214439 0.68853128 4.9825647e-39
0.44323725 0.21763586 0.68830848 2.1220087e-39
0.44055381 0.2213462 0.68872833 2.0294571e-39
0.44195002 0.21940775 0.68908143 2.0298173e-39
0.43894187 0.22364777 0.68807673 1.9379804e-39
0.43691286 0.22661217 0.6885522 2.6737363e-39
0.43448889 0.23023021 0.68816054 4.7056219e-39
0.43542907 0.22880113 0.68923873 3.045037e-39
0.4332689 0.23253767 0.68842167 5.9977858e-39
0.43147963 0.23605107 0.68787926 6.5505967e-39
0.43222183 0.2345257 0.68927866 6.1821757e-39
0.43021074 0.2384661 0.68867296 7.5640227e-39
0.42864171 0.24151929 0.68821734 8.3927002e-39
0.4280405 0.24442075 0.68834525 6.4576738e-39
0.42988083 0.24745336 0.68922246 6.2711091e-39
0.43173194 0.25031811 0.68745995 6.1781904e-39
0.43263954 0.251701 0.68858719 5.9941579e-39
0.43354684 0.2530835 0.68971413 5.9016021e-39
0.43496078 0.25528222 0.68738234 5.9937963e-39
0.46046466 0.20077938 0.690992 6.1821757e-39
0.46315232 0.1990843 0.69072461 7.747328e-39
0.46587139 0.19884373 0.6904279 1.0787249e-38
0.45779306 0.20246436 0.6912576 6.1821757e-39
0.45159507 0.20635544 0.69189918 6.1821757e-39
0.45425209 0.20469764 0.69160974 6.1821757e-39
0.44920775 0.20882891 0.69178247 6.1821757e-39
0.45002306 0.20753676 0.69178927 6.1821757e-39
0.44673723 0.21267903 0.69181693 6.1821757e-39
0.44780621 0.21095783 0.69184542 6.1821757e-39
0.44561443 0.21437161 0.69187671 5.9974271e-39
0.44339046 0.21742551 0.6911068 3.4141768e-39
0.44040191 0.2215323 0.69158661 3.0450384e-39
0.4416039 0.21989675 0.6913805 3.2294282e-39
0.43929029 0.22320449 0.69164991 3.5063725e-39
0.43679196 0.22687128 0.69158578 3.5989254e-39
0.43805975 0.22513299 0.69277972 5.2595089e-39
0.43436366 0.23039697 0.69098914 5.8130372e-39
0.43533635 0.22898887 0.69200712 5.3517046e-39
0.43331569 0.23223189 0.69140434 6.0896213e-39
0.4312461 0.23614126 0.69089407 6.2740112e-39
0.43226647 0.23405918 0.69182581 6.1821757e-39
0.42947227 0.23923761 0.69121516 6.8271808e-39
0.42866269 0.24132137 0.69168729 6.1821757e-39
0.42851835 0.24427405 0.69175279 6.3658411e-39
0.43123806 0.24952136 0.69090742 6.1781904e-39
0.43206346 0.25085616 0.69216067 6.0863577e-39
0.4344539 0.25446564 0.69084084 5.9012406e-39
0.43536073 0.25584739 0.69196725 5.9012406e-39
0.43932098 0.2583935 0.69073105 5.9015993e-39
0.4420141 0.26023597 0.69158733 5.9934362e-39
0.46071029 0.20028576 0.69447821 6.7346236e-39
0.46250159 0.19916175 0.69429743 7.5632969e-39
0.46688354 0.1999165 0.6940335 1.0326271e-38
0.45528162 0.20379695 0.69387519 6.1821757e-39
0.45831287 0.20183639 0.69432002 6.2740098e-39
0.4516893 0.20598313 0.69433647 6.1821757e-39
0.45348209 0.20489208 0.69410628 6.1821757e-39
0.44924498 0.20930792 0.69474316 6.1821757e-39
0.45069161 0.20719838 0.6946137 6.1821757e-39
0.44751343 0.21183121 0.69489914 6.1821757e-39
0.44541359 0.21479642 0.69478971 6.1821757e-39
0.44297323 0.21821369 0.69437361 6.0899815e-39
0.4442336 0.21627147 0.6932199 6.0896213e-39
0.4407748 0.22125377 0.69358528 6.1821757e-39
0.44148985 0.22042707 0.69502705 6.1821757e-39
0.43929249 0.22361484 0.69468009 6.1821757e-39
0.43734255 0.22651713 0.69480997 6.1821757e-39
0.43470299 0.23008773 0.69304383 6.0899815e-39
0.43566084 0.22898741 0.69494796 6.1821757e-39
0.43311897 0.23235352 0.69433701 6.1821757e-39
0.43109503 0.23517346 0.69462591 6.1821757e-39
0.42986229 0.23798916 0.69448829 6.1821757e-39
0.42942318 0.24151587 0.69391185 6.1821757e-39
0.42912957 0.24486464 0.69439805 6.5505953e-39
0.43000484 0.24756424 0.69468755 6.1807268e-39
0.43329474 0.25285342 0.6940484 5.9019665e-39
0.4348731 0.2550422 0.69536662 5.9016049e-39
0.46128529 0.19973072 0.69871908 8.7614771e-39
0.46358365 0.19900505 0.69649041 9.6816215e-39
0.45537266 0.2032299 0.69758713 5.9970614e-39
0.45717144 0.2023315 0.69608569 6.1821757e-39
0.45191908 0.20600896 0.69740683 6.0899801e-39
0.45371264 0.20437837 0.69760233 6.0896185e-39
0.44961786 0.20938537 0.69758886 6.1821743e-39
0.45047572 0.20811957 0.6975261 6.0899787e-39
0.44846344 0.21106403 0.69769138 6.0899787e-39
0.44582453 0.21471524 0.69740283 6.0899801e-39
0.44724274 0.21303989 0.69875872 6.0896171e-39
0.44359043 0.21766923 0.69683278 6.1821757e-39
0.44436079 0.2168718 0.69818181 6.0899787e-39
0.44087988 0.22181417 0.69858581 6.0896185e-39
0.44211069 0.219882 0.69747585 6.0899801e-39
0.43961006 0.22354656 0.69740152 6.0899801e-39
0.43740079 0.22694227 0.69773471 6.0899787e-39
0.43820238 0.22568837 0.69773239 6.1818156e-39
0.43457085 0.23071536 0.69715393 6.0899801e-39
0.43597603 0.22898233 0.69788855 6.0896185e-39
0.43309388 0.23271547 0.6974054 6.0899801e-39
0.43119675 0.23581949 0.69774771 6.0896199e-39
0.42994931 0.23908758 0.69737762 6.0899787e-39
0.42943847 0.24131744 0.69735402 5.9974215e-39
0.42937145 0.24454419 0.69746464 6.1810911e-39
0.43042216 0.24733308 0.697465 6.1818142e-39
0.43155685 0.25017199 0.69732982 5.8112184e-39
0.4336572 0.25340125 0.69864309 5.439182e-39
0.43703151 0.25658301 0.69704092 5.8094065e-39
0.43948936 0.25829089 0.69824004 5.9934362e-39
0.4472912 0.26135933 0.69868237 5.068952e-39
0.45851868 0.20064822 0.69912744 6.7291978e-39
0.46042585 0.20062834 0.7013033 6.5448107e-39
0.46403909 0.20004469 0.69962525 8.9444208e-39
0.46611047 0.20028085 0.70030701 8.7607498e-39
0.45587623 0.20283541 0.70064211 5.1629595e-39
0.45717049 0.20173404 0.69992316 5.3469906e-39
0.4522104 0.20606111 0.7003653 5.5339126e-39
0.45435333 0.20403768 0.70044452 5.6257467e-39
0.45080948 0.20845631 0.70025992 5.2544334e-39
0.44854558 0.21155362 0.70055193 5.5335511e-39
0.44631928 0.21475729 0.70021409 5.8112226e-39
0.44715911 0.21399297 0.70144945 4.9767605e-39
0.44371769 0.21848106 0.70048374 5.3480752e-39
0.44487736 0.216994 0.70078325 5.440631e-39
0.4422105 0.22058621 0.70057213 5.5331895e-39
0.44027114 0.22325678 0.70041561 5.6257481e-39
0.43727264 0.2278204 0.70051646 5.3477123e-39
0.4386189 0.22574222 0.70049423 5.5331881e-39
0.4357948 0.22982574 0.7007578 5.2555166e-39
0.4337844 0.2324158 0.70075428 5.255518e-39
0.4317452 0.23583549 0.70046699 5.5331895e-39
0.43230385 0.23402326 0.69955599 5.9041427e-39
0.43076229 0.23821737 0.70035315 5.2555166e-39
0.42969066 0.24166757 0.70060325 4.6065305e-39
0.42949396 0.24378148 0.7002809 5.5281224e-39
0.43074337 0.24705149 0.70038366 5.161149e-39
0.4315477 0.24900562 0.70078897 4.3281359e-39
0.43246135 0.25134119 0.70058739 4.6987233e-39
0.43490154 0.2539973 0.70048773 4.883116e-39
0.43732643 0.25594854 0.70043004 4.8834775e-39
0.43972176 0.25788593 0.70043886 5.5295686e-39
0.44878459 0.26138186 0.70017743 4.790556e-39
0.46313459 0.20092912 0.70226312 7.4689334e-39
0.45529902 0.2038254 0.70280206 4.2337683e-39
0.45739412 0.20265841 0.70339286 4.140851e-39
0.46035394 0.20163959 0.70394701 4.9688026e-39
0.46412849 0.20176153 0.70413494 6.0776823e-39
0.46656612 0.20131916 0.70342064 7.0057875e-39
0.46887195 0.20164901 0.70375949 6.7273901e-39
0.45250899 0.20611702 0.7032972 4.4167134e-39
0.45394248 0.20524421 0.70362139 4.3263254e-39
0.47472075 0.20622042 0.70391548 7.8326559e-39
0.45124945 0.20838571 0.70372403 4.1412125e-39
0.44922009 0.21149831 0.7033211 3.9575457e-39
0.44658375 0.2151524 0.70235282 4.0501029e-39
0.44767091 0.21412046 0.70404392 3.864627e-39
0.44537243 0.21750452 0.70383078 3.864627e-39
0.44326279 0.22065037 0.70375884 3.8649858e-39
0.44054851 0.2241891 0.70338488 4.0497385e-39
0.44177207 0.22290832 0.70399308 3.9568213e-39
0.43885413 0.22648826 0.70336175 3.9571814e-39
0.4369368 0.22929181 0.70361823 3.9568227e-39
0.43411016 0.23318487 0.7034772 3.8649858e-39
0.43543997 0.23151021 0.70389158 3.8646256e-39
0.43185723 0.23610288 0.70285517 3.8653473e-39
0.43262729 0.23524225 0.70331401 3.9579045e-39
0.4310621 0.23860222 0.70350599 3.8649872e-39
0.43076554 0.24168572 0.70309114 3.77243e-39
0.43092215 0.24492285 0.70309269 3.77243e-39
0.43137595 0.24769795 0.70363694 3.77243e-39
0.4323926 0.25046244 0.70369434 3.77243e-39
0.43552709 0.25355268 0.70332521 3.8649872e-39
0.43944794 0.25650096 0.70343721 3.9571828e-39
0.45790875 0.20369968 0.70639855 4.2326837e-39
0.45993432 0.20311224 0.70626408 5.5208917e-39
0.46300665 0.20315742 0.70624363 5.8889512e-39
0.46672702 0.20314983 0.70570028 6.2570106e-39
0.46966505 0.20301616 0.70509797 6.2570106e-39
0.4551622 0.20567144 0.705966 4.3245192e-39
0.45647696 0.20544374 0.7073189 4.4167134e-39
0.4614138 0.20413888 0.70738345 6.2570106e-39
0.46397302 0.20458548 0.70730639 6.2570106e-39
0.46654344 0.20503405 0.70722884 6.2570106e-39
0.46947849 0.20490606 0.70663148 6.2570106e-39
0.47172379 0.2059381 0.70707262 6.2570106e-39
0.45208329 0.20882218 0.70585549 4.4167134e-39
0.45390111 0.20827904 0.7072255 4.6925786e-39
0.47566724 0.20890273 0.70629287 7.3662505e-39
0.4493171 0.2122521 0.70570785 3.77243e-39
0.45086837 0.21159019 0.70709831 4.8766083e-39
0.47645009 0.21244174 0.70765138 6.8090998e-39
0.4773826 0.21137543 0.70629263 7.459172e-39
0.44859833 0.21447854 0.70682395 4.3245192e-39
0.47855842 0.21435522 0.70708346 6.8090998e-39
0.44631514 0.21791053 0.70658398 3.9564597e-39
0.44727999 0.21601409 0.7063449 3.77243e-39
0.44474295 0.220447 0.70651102 3.9564597e-39
0.44265211 0.22358239 0.70641714 3.9564597e-39
0.44016629 0.22666644 0.70611382 3.9564597e-39
0.44156569 0.22594966 0.70770609 3.9564597e-39
0.43719414 0.23050292 0.70618135 3.9564597e-39
0.43892223 0.22874603 0.70681763 4.2323249e-39
0.43485546 0.2333868 0.70568234 3.77243e-39
0.43611836 0.23245366 0.70705205 3.8642655e-39
0.43383247 0.23520076 0.70605254 3.9564597e-39
0.43508643 0.23441796 0.70785546 4.5085489e-39
0.47175282 0.23480465 0.70702994 6.4410404e-39
0.43191332 0.23981993 0.70532346 4.5085489e-39
0.43306538 0.23829779 0.70633245 4.5085489e-39
0.42122123 0.24115914 0.70531505 6.364032e-39
0.4318158 0.24185622 0.70548129 4.1404894e-39
0.43315145 0.24181032 0.70714867 4.5085489e-39
0.4319202 0.24469501 0.70531237 3.77243e-39
0.43282199 0.24426973 0.70725507 4.2323249e-39
0.4323107 0.24743353 0.70595634 3.77243e-39
0.43354857 0.250375 0.70650959 4.0482952e-39
0.4353888 0.25129771 0.70737177 4.3245192e-39
0.43686321 0.25323942 0.7062856 3.9564597e-39
0.43983564 0.25522277 0.70663798 3.9564597e-39
0.44274113 0.25743416 0.70585459 4.2326837e-39
0.44587061 0.25783616 0.70727867 4.4167134e-39
0.45526856 0.25722116 0.70664412 6.2570106e-39
0.45730853 0.25636747 0.70605189 6.2570106e-39
0.45935839 0.25550961 0.70545685 6.2570106e-39
0.45780781 0.20569693 0.70864791 4.8766083e-39
0.46030128 0.20582221 0.70906067 6.1648164e-39
0.46326742 0.20613797 0.70878059 6.1648164e-39
0.46667206 0.20632228 0.70829141 6.1648164e-39
0.46925354 0.20677592 0.70821595 6.1648164e-39
0.45520407 0.20891631 0.70863098 5.1524736e-39
0.45717844 0.20843777 0.70976961 5.0606381e-39
0.46001488 0.2076377 0.71074295 5.6127272e-39
0.46335959 0.20822141 0.71072686 5.9807867e-39
0.46626711 0.20810518 0.71014261 5.9807867e-39
0.46968699 0.20808893 0.70945066 6.1648164e-39
0.47226417 0.2086416 0.70877844 6.8090998e-39
0.45249856 0.21166977 0.70836931 5.0606381e-39
0.45449391 0.21163972 0.7098397 5.0606381e-39
0.45742929 0.21000221 0.71089149 5.0606381e-39
0.47261161 0.21146521 0.70951849 6.8090998e-39
0.47435188 0.21053751 0.70821649 6.8090998e-39
0.44930485 0.2153534 0.70825315 4.6925786e-39
0.45125386 0.21456468 0.70944351 4.9684438e-39
0.45355442 0.21362221 0.71052039 5.0606381e-39
0.47333622 0.21300371 0.7097019 5.9807867e-39
0.4750759 0.21403906 0.70965362 6.3488461e-39
0.47716856 0.21522586 0.70910108 5.9807867e-39
0.44865513 0.21788257 0.70925814 4.6925786e-39
0.45098054 0.21665385 0.71069962 5.4286975e-39
0.4463422 0.22060819 0.70864743 4.7844141e-39
0.44816476 0.22012457 0.71001673 4.9684438e-39
0.47633877 0.21993607 0.71030557 6.7169056e-39
0.44296205 0.22475682 0.70803946 5.1524736e-39
0.44542605 0.22361119 0.70923448 5.0606381e-39
0.44768628 0.22306943 0.71075654 5.0606381e-39
0.4748055 0.22402945 0.7100476 6.7169056e-39
0.47733253 0.22325824 0.70886302 6.7169056e-39
0.44267717 0.22677343 0.70899266 5.1524736e-39
0.44514036 0.22660191 0.71051854 5.2446678e-39
0.47284922 0.22648129 0.71041417 6.6247114e-39
0.47566426 0.22657503 0.70879632 6.6247114e-39
0.43977141 0.2300543 0.70885187 5.1524736e-39
0.44219118 0.22952776 0.7102589 5.1524736e-39
0.4714421 0.22988701 0.70998514 6.6247114e-39
0.47400045 0.2291604 0.70873052 6.2566519e-39
0.43723086 0.23284103 0.7086609 5.1524736e-39
0.43926626 0.23275387 0.71007001 5.1524736e-39
0.46973139 0.23242651 0.71000814 6.7169056e-39
0.43498665 0.23576006 0.70801514 4.5085489e-39
0.43660176 0.23516029 0.70923948 5.2446678e-39
0.43825942 0.23527782 0.71039945 5.2446678e-39
0.46768171 0.23479594 0.71054053 6.7169056e-39
0.46803987 0.2363984 0.71001083 6.7169056e-39
0.43478307 0.23843999 0.70834094 4.4167134e-39
0.43645111 0.23826222 0.71002114 4.8766083e-39
0.46599734 0.23875475 0.71054244 6.7169056e-39
0.43452722 0.24178585 0.70875031 4.4167134e-39
0.43574604 0.24153036 0.71017963 4.4167134e-39
0.46466386 0.24287097 0.7100293 6.4410404e-39
0.46769476 0.24100667 0.70802271 6.3488461e-39
0.43400356 0.24468951 0.70874357 4.4167134e-39
0.43522364 0.24443471 0.71016937 4.4167134e-39
0.46294606 0.2453595 0.71009493 6.4410404e-39
0.43371779 0.24716982 0.70877898 4.6007431e-39
0.43633938 0.24754587 0.71041596 5.2446678e-39
0.46123397 0.24783979 0.71016037 6.4410404e-39
0.43465036 0.24950351 0.70855319 4.3245192e-39
0.43668234 0.25052971 0.70911139 4.9684438e-39
0.43909833 0.25080818 0.71033543 5.2446678e-39
0.45739681 0.25113302 0.71094072 6.2570106e-39
0.45952743 0.25031188 0.71022564 6.4410404e-39
0.43917158 0.25319976 0.70895678 4.5085489e-39
0.4420557 0.25347263 0.71072322 4.9688026e-39
0.45248359 0.25432098 0.71090347 6.0729809e-39
0.4549036 0.25271374 0.71096998 6.0729809e-39
0.44228628 0.25525728 0.7091015 4.5085489e-39
0.44578007 0.25585797 0.70994288 5.2446678e-39
0.44878423 0.25644672 0.71031648 5.2446678e-39
0.45087659 0.25538826 0.71085924 6.0729809e-39
0.44840553 0.25817156 0.70838535 4.4167134e-39
0.4588868 0.20878966 0.71119094 5.1524736e-39
0.46084151 0.20900021 0.71199822 5.9807867e-39
0.46410042 0.20955157 0.71211571 5.8889512e-39
0.4665525 0.20996539 0.71221054 5.8889512e-39
0.45556825 0.21245354 0.71121031 5.0606381e-39
0.45773274 0.21158567 0.71193278 5.4286975e-39
0.46032065 0.2113791 0.71252954 6.4406816e-39
0.46372521 0.21153235 0.71267366 6.4406816e-39
0.4669854 0.21208635 0.71281457 6.4410404e-39
0.46958798 0.211336 0.71146524 6.3488461e-39
0.45470262 0.21457504 0.71169209 5.796757e-39
0.45710519 0.21461615 0.71263039 5.796757e-39
0.46024609 0.21467271 0.71313924 6.4406816e-39
0.46337134 0.21423073 0.71319985 6.3488461e-39
0.46657819 0.21477096 0.71341568 6.4410404e-39
0.46939746 0.21463312 0.71298653 6.6250701e-39
0.4719108 0.21466707 0.71261495 6.6250701e-39
0.45171279 0.21771631 0.71145725 5.7049215e-39
0.45425868 0.21744151 0.71236748 5.796757e-39
0.45773453 0.21728668 0.71342659 6.1644577e-39
0.46048132 0.21787211 0.713781 6.3488461e-39
0.46275425 0.21664314 0.71370381 6.3488461e-39
0.46627322 0.21678138 0.71386588 6.4410404e-39
0.46964696 0.21794212 0.71344835 6.6250701e-39
0.47235957 0.21711294 0.71278667 6.6250701e-39
0.47572082 0.21678492 0.71120262 6.7169056e-39
0.44907022 0.22115567 0.71112967 5.0606381e-39
0.45160815 0.2207334 0.71224356 5.7049215e-39
0.45480293 0.22014709 0.7133705 5.7049215e-39
0.45708787 0.21935023 0.7139014 6.4406816e-39
0.46712857 0.2212251 0.71384305 6.7169056e-39
0.46916988 0.22097895 0.71332061 6.7169056e-39
0.47196326 0.21995451 0.71253902 6.7169056e-39
0.4740662 0.2215431 0.71112478 6.7169056e-39
0.44913945 0.22338514 0.71185875 5.2446678e-39
0.45152074 0.22328267 0.7128768 5.7049215e-39
0.45381162 0.22368219 0.7138769 5.796757e-39
0.46731609 0.22345088 0.7135669 6.7169056e-39
0.46945891 0.22397047 0.71289635 6.7169056e-39
0.47180656 0.22314206 0.71193898 6.7169056e-39
0.44623244 0.22752631 0.71175277 5.2446678e-39
0.4485364 0.22630121 0.71226615 5.6127272e-39
0.45163244 0.2261582 0.71345472 5.8885925e-39
0.46374387 0.2277067 0.71388733 6.6250701e-39
0.46654865 0.22618125 0.71345973 6.6250701e-39
0.4700442 0.22638179 0.71203721 6.7169056e-39
0.44390762 0.2299006 0.71160018 5.2446678e-39
0.44559479 0.22932136 0.71198952 5.796757e-39
0.44870943 0.22990112 0.71293783 5.9807867e-39
0.45109817 0.22918598 0.71364695 5.8885925e-39
0.46386838 0.22989976 0.71370262 6.7169056e-39
0.46576726 0.22890186 0.71337175 6.6250701e-39
0.46927819 0.22919719 0.71150708 6.6247114e-39
0.44074512 0.23347776 0.71152031 5.2446678e-39
0.44261199 0.23239803 0.71182877 5.7045627e-39
0.44569856 0.23217581 0.71258038 6.1648164e-39
0.44851029 0.23261383 0.7132442 5.9807867e-39
0.450519 0.23289144 0.71390814 5.8885925e-39
0.46329731 0.23270728 0.71331131 6.6247114e-39
0.46694702 0.2323052 0.71162701 6.6247114e-39
0.43992287 0.23539738 0.711555 5.3365033e-39
0.4424088 0.23568951 0.71268392 6.0726222e-39
0.44536886 0.23551482 0.71309143 6.1648164e-39
0.4483071 0.23532198 0.71355677 6.0726222e-39
0.46273059 0.23551616 0.71290976 6.7169056e-39
0.46528655 0.2355562 0.71159744 6.7169056e-39
0.43771869 0.23918192 0.71125495 5.2446678e-39
0.43941569 0.23839493 0.71210164 5.3365033e-39
0.44241461 0.23848085 0.71342731 5.980428e-39
0.44494057 0.23810019 0.71375501 6.2566519e-39
0.44729295 0.23856217 0.71386838 6.3488461e-39
0.45873708 0.2394917 0.71390843 6.6247114e-39
0.4606764 0.2378381 0.71348917 6.7169056e-39
0.46342456 0.23869839 0.7118758 6.7169056e-39
0.46564168 0.23715423 0.7110703 6.7169056e-39
0.43699875 0.2419879 0.71155483 4.9684438e-39
0.43956521 0.24155708 0.71295565 5.6127272e-39
0.4410786 0.24153444 0.71350843 5.7049215e-39
0.44562554 0.24170339 0.71394396 6.5328759e-39
0.44725803 0.24204877 0.71392214 6.2566519e-39
0.45797846 0.24147956 0.71380579 6.6247114e-39
0.46058628 0.24150085 0.71279627 6.7169056e-39
0.4639228 0.24107973 0.71113342 6.7169056e-39
0.43664801 0.24443632 0.71169072 4.7847728e-39
0.43904948 0.24470213 0.71292925 5.8889512e-39
0.4417614 0.2451279 0.71369463 5.8889512e-39
0.44488138 0.24436371 0.71384704 6.3488461e-39
0.45552602 0.24521945 0.71376997 6.6247114e-39
0.45727915 0.24420363 0.71361315 6.6247114e-39
0.46034861 0.24438488 0.71232218 6.6247114e-39
0.43760365 0.24677794 0.71143693 5.2446678e-39
0.43945849 0.24770373 0.7122854 4.8766083e-39
0.44186765 0.24797325 0.71352875 5.9807867e-39
0.44489944 0.24717018 0.71381891 6.2566519e-39
0.44819668 0.24859682 0.71372712 6.3488461e-39
0.45146927 0.24789751 0.71370459 6.4410404e-39
0.4546527 0.24769044 0.71343249 6.4410404e-39
0.45777497 0.24728692 0.71286619 6.5328759e-39
0.44077498 0.25094283 0.71147346 4.6007431e-39
0.44210649 0.25074366 0.71273726 4.7847728e-39
0.44513518 0.25009251 0.71345395 6.3488461e-39
0.44860792 0.25091881 0.71309459 6.3488461e-39
0.45191744 0.25024304 0.71302044 6.4410404e-39
0.45455927 0.25016215 0.71274185 6.2570106e-39
0.45626414 0.24913123 0.71265364 6.2570106e-39
0.44344991 0.25205487 0.71231353 5.336862e-39
0.44529569 0.25323385 0.71195161 5.5208917e-39
0.44845194 0.25389984 0.71208364 5.796757e-39
0.45144385 0.2523599 0.71249366 6.4410404e-39
0.46190584 0.21878317 0.71413857 6.3488461e-39
0.46363872 0.21769579 0.7140435 6.3488461e-39
0.46607018 0.21812005 0.71416569 6.4410404e-39
0.45532662 0.221818 0.71407151 5.796757e-39
0.45801392 0.2204197 0.7141667 6.3488461e-39
0.46086836 0.22066763 0.71444547 6.3488461e-39
0.46372303 0.2201159 0.71453923 6.3488461e-39
0.46602783 0.22024012 0.71422839 6.6250701e-39
0.45513552 0.22384851 0.71436059 6.0726222e-39
0.45732531 0.2232434 0.71453947 6.3488461e-39
0.46071053 0.22343448 0.71468103 6.4406816e-39
0.46340349 0.22399452 0.71439266 6.6250701e-39
0.46525714 0.2229666 0.71412617 6.6250701e-39
0.45434001 0.22652507 0.71432132 6.0726222e-39
0.4575243 0.22664043 0.71473712 6.3488461e-39
0.4607473 0.22628844 0.71462661 6.5328759e-39
0.46360767 0.22622111 0.71408963 6.6250701e-39
0.45206434 0.22965553 0.71404248 5.8885925e-39
0.45426399 0.22931026 0.71443647 6.2570106e-39
0.45733526 0.22985002 0.71477294 6.3488461e-39
0.46093994 0.22921532 0.71433914 6.6250701e-39
0.45194924 0.23241574 0.71421784 6.2570106e-39
0.45424491 0.23212171 0.7144655 6.2570106e-39
0.45754921 0.23277985 0.71445125 6.4406816e-39
0.46009263 0.23188268 0.71436226 6.7169056e-39
0.4512125 0.23580833 0.71409619 6.3488461e-39
0.45442119 0.23502763 0.71419847 6.4406816e-39
0.45775235 0.2357071 0.71414578 6.4406816e-39
0.46021971 0.23477966 0.71417224 6.6247114e-39
0.44551694 0.23954938 0.71411192 6.5328759e-39
0.44827437 0.2382666 0.71402353 6.4406816e-39
0.45118815 0.23860942 0.71413338 6.4410404e-39
0.45427546 0.23824756 0.71417046 6.4410404e-39
0.45745897 0.23823665 0.71417266 6.5328759e-39
0.44312161 0.24115385 0.71407813 6.0729809e-39
0.44877064 0.24092843 0.71409225 6.2566519e-39
0.45107585 0.24136603 0.7143048 6.4410404e-39
0.4543477 0.24133873 0.71430993 6.5328759e-39
0.45697939 0.24051708 0.71406478 6.6247114e-39
0.44236398 0.24310198 0.71400595 5.8889512e-39
0.44808298 0.24456044 0.71415126 6.2566519e-39
0.45100251 0.2441411 0.71441686 6.3488461e-39
0.45422283 0.24417762 0.71408415 6.6247114e-39
0.44796246 0.24707203 0.71408713 6.2566519e-39
0.45117566 0.24633902 0.71415275 6.3488461e-39
0.44935778 0.26639047 0.71477884 6.7306411e-39
0.45272014 0.2236145 0.71747816 5.7194025e-39
0.49539834 0.21982837 0.72259688 8.4841672e-39
0.45278478 0.27469271 0.72311199 4.7898357e-39
