# .PCD v0.7 - Point Cloud Data file format
VERSION 0.7
FIELDS x y z rgb
SIZE 4 4 4 4
TYPE F F F F
COUNT 1 1 1 1
WIDTH 793
HEIGHT 1
VIEWPOINT 0 0 0 1 0 0 0
POINTS 793
DATA ascii
0.62432867 0.13212487 0.63577151 2.9517932e-39
0.58926862 0.14274915 0.63585848 1.0786889e-38
0.64098161 0.10551324 0.63811982 1.0786889e-38
0.6479044 0.10754002 0.6373238 1.0695773e-38
0.64191729 0.11056133 0.63897753 1.1432618e-38
0.64448178 0.10907978 0.63729757 1.0972e-38
0.63745785 0.11385167 0.63752383 1.1708845e-38
0.63976955 0.11226386 0.63747323 1.1708845e-38
0.63526255 0.1154502 0.63744342 1.1708845e-38
0.63275141 0.11873688 0.63775212 4.6894229e-39
0.63401639 0.11709688 0.63758612 9.395681e-39
0.63079667 0.12122762 0.63740253 2.9514316e-39
0.62837338 0.12450283 0.63762522 2.8599577e-39
0.62615919 0.12866648 0.63760412 2.8599577e-39
0.62702429 0.12697896 0.63790756 2.8599577e-39
0.62490952 0.1311496 0.63777208 2.8599577e-39
0.62356877 0.13371962 0.63669962 2.8599577e-39
0.62220335 0.13642316 0.63746506 2.8599577e-39
0.62151104 0.13924788 0.63740963 2.8599577e-39
0.62099683 0.14383245 0.63713771 3.6846611e-39
0.62119389 0.14214338 0.63689613 3.0436245e-39
0.62079996 0.14552042 0.63737917 6.81423e-39
0.6205048 0.14805017 0.63774097 1.0783652e-38
0.62020993 0.15057775 0.63810235 1.1708845e-38
0.62222838 0.15248457 0.63833678 1.1708845e-38
0.64875704 0.10741194 0.64036834 1.0603579e-38
0.64191961 0.11039312 0.6416657 1.1432618e-38
0.64518631 0.10892879 0.6405133 1.0972e-38
0.63768756 0.11362223 0.64129418 1.1708845e-38
0.63965166 0.11198863 0.6416555 1.1708845e-38
0.63494706 0.11609461 0.64051956 1.0968762e-38
0.63302553 0.11850134 0.64146823 5.5130445e-39
0.63085532 0.12130377 0.64047992 3.0425441e-39
0.62844294 0.12457266 0.64068919 2.9514302e-39
0.62632954 0.12838742 0.6414454 3.1347383e-39
0.62720513 0.12680744 0.64038765 2.8599577e-39
0.6249938 0.13095358 0.64036959 2.9514316e-39
0.62366718 0.13352135 0.63928396 2.8599577e-39
0.62255239 0.13590565 0.64064062 3.0432657e-39
0.62186223 0.1395876 0.64058214 3.0429056e-39
0.6213125 0.14243124 0.64035392 3.2262123e-39
0.62063551 0.14610901 0.64028227 5.8011697e-39
0.62029302 0.14862317 0.64070052 1.0320514e-38
0.62009698 0.15030435 0.64094001 1.1708845e-38
0.62455618 0.17060016 0.63905174 1.0786889e-38
0.64958227 0.10728081 0.64343405 1.0603579e-38
0.64236116 0.11028735 0.64382839 1.1432618e-38
0.64596123 0.10878845 0.6436311 1.0972e-38
0.63804615 0.1135002 0.64355326 1.1708845e-38
0.63993591 0.11185824 0.64400208 1.1708845e-38
0.6344893 0.11671463 0.64374876 1.0691096e-38
0.63608897 0.11512773 0.64319056 1.1708845e-38
0.63324296 0.11835052 0.64389271 6.0629658e-39
0.63132107 0.12083535 0.64350498 3.8661628e-39
0.62879336 0.12407941 0.64385039 3.6832149e-39
0.62613392 0.12814863 0.64436603 3.9576368e-39
0.62714475 0.12659535 0.64314926 3.4087986e-39
0.62484491 0.13071685 0.64323902 3.5917438e-39
0.6233415 0.13374932 0.64326733 3.4999069e-39
0.62266135 0.1365675 0.64319777 3.8665244e-39
0.62204444 0.13903254 0.64394569 4.047659e-39
0.62140876 0.14246611 0.6433745 3.5895591e-39
0.62069583 0.14674151 0.64289999 6.3510812e-39
0.62110591 0.14510423 0.64240092 4.9674503e-39
0.62028635 0.14837658 0.64339823 8.939023e-39
0.6201731 0.15093161 0.64353609 1.1708845e-38
0.64963931 0.10712769 0.64604068 1.0695415e-38
0.64279437 0.11018081 0.64599448 1.1340423e-38
0.64637512 0.10859929 0.64715648 1.078797e-38
0.63830465 0.11336396 0.64592314 1.1708845e-38
0.64014453 0.1117175 0.64642948 1.1708845e-38
0.63485241 0.11649902 0.64732838 1.0878365e-38
0.63656533 0.11493292 0.6466378 1.1708845e-38
0.63217068 0.1198229 0.64650428 3.2193067e-39
0.63345903 0.11820006 0.64631045 4.9688502e-39
0.6308853 0.12144194 0.64669991 2.8526863e-39
0.62892926 0.12390621 0.64636326 3.3122338e-39
0.62644362 0.12713584 0.64666843 3.2200381e-39
0.62467277 0.13047701 0.64612478 3.495909e-39
0.62305057 0.13373145 0.64674306 2.8523262e-39
0.62195575 0.13707222 0.64672947 2.3927816e-39
0.62134141 0.13952968 0.64747167 1.1967467e-39
0.62093258 0.14116505 0.64796555 5.5245491e-40
0.62101907 0.14313054 0.64518905 3.1289103e-39
0.62052846 0.14560753 0.6457839 4.2381235e-39
0.62051094 0.14903754 0.64580512 1.0786529e-38
0.62057483 0.15162627 0.64572769 1.1708845e-38
0.62102383 0.15318702 0.6478554 1.1708845e-38
0.64971733 0.10689811 0.64994097 1.078797e-38
0.64323294 0.10999224 0.64947593 1.1248227e-38
0.64631104 0.10842726 0.64988983 1.0695775e-38
0.63865399 0.113155 0.64950728 1.1708845e-38
0.64035261 0.1115772 0.64884931 1.1708845e-38
0.63512433 0.11636055 0.64966875 1.1340062e-38
0.63695186 0.11472569 0.65017587 1.1708845e-38
0.63201731 0.1195188 0.65067935 9.2159616e-40
0.63340795 0.11800869 0.64903575 4.1484432e-39
0.62966996 0.12297172 0.64814693 1.5648132e-39
0.63084978 0.12124623 0.6494059 4.6025788e-40
0.62830299 0.12446935 0.64977443 4.6025788e-40
0.62581527 0.12768635 0.65008444 4.6025788e-40
0.62711555 0.1261892 0.6485306 1.4729749e-39
0.62459028 0.130254 0.64889133 1.1045511e-39
0.62303019 0.13351282 0.64943302 6.4429041e-40
0.62156045 0.13677576 0.64987117 2.7622676e-40
0.62073827 0.1408975 0.65086091 3.1328564e-39
0.62103486 0.13924414 0.65050381 0
0.62074131 0.14284149 0.64819664 0
0.62080526 0.14542565 0.64811945 3.5034339e-39
0.62063253 0.1488176 0.64832813 9.772378e-39
0.62025267 0.15130742 0.64878702 1.1708845e-38
0.62124646 0.15298258 0.65024924 1.1708845e-38
0.65084457 0.10680971 0.65262067 1.0972362e-38
0.6437645 0.10981759 0.65283495 1.1432978e-38
0.64729458 0.10831784 0.65272784 1.0972362e-38
0.64022738 0.11191097 0.65253115 1.1617009e-38
0.63540322 0.11622367 0.65199316 1.1708845e-38
0.63724613 0.11459366 0.65248138 1.1708845e-38
0.6320377 0.11933642 0.65330392 8.2976067e-40
0.6337074 0.11778131 0.65266055 5.5317378e-39
0.62940943 0.12264008 0.65243816 9.219563e-41
0.63063306 0.12102214 0.65231568 9.219563e-41
0.62699378 0.1259691 0.65133333 2.7622676e-40
0.62817234 0.1242518 0.65258217 9.219563e-41
0.62574923 0.12747267 0.6528151 9.219563e-41
0.62468117 0.12970828 0.65232235 9.219563e-41
0.62287688 0.13351996 0.652713 2.7658269e-40
0.65694612 0.13276623 0.65181434 1.1156033e-38
0.62149954 0.13654368 0.65259814 9.1835496e-41
0.62066942 0.13980177 0.65359366 7.371965e-40
0.62041956 0.14254481 0.65124452 7.3756504e-40
0.62006116 0.14503655 0.65167588 8.5741936e-39
0.61966467 0.14837143 0.65215313 1.1708845e-38
0.62047613 0.15110615 0.65117633 1.1708845e-38
0.62146837 0.15277876 0.65263557 1.1708845e-38
0.62223959 0.15465678 0.65171057 1.1708845e-38
0.62323225 0.15633003 0.653171 1.1708845e-38
0.65168226 0.10668339 0.65561986 1.078797e-38
0.64436394 0.10973592 0.65478247 1.1156033e-38
0.64803416 0.10817578 0.65583575 1.0695775e-38
0.64027756 0.1120087 0.6555531 1.1616649e-38
0.63564849 0.11599319 0.65566623 1.1708845e-38
0.63742435 0.11444493 0.65491426 1.1708845e-38
0.63209188 0.11916006 0.6558789 1.1063476e-39
0.63387942 0.1175354 0.65641761 6.6380854e-39
0.62934923 0.12234285 0.65647012 2.7658269e-40
0.6305815 0.12082542 0.65501881 0
0.62689131 0.12565419 0.65542006 1.4751077e-39
0.62810153 0.12404504 0.65530795 1.9357201e-39
0.62528676 0.12804613 0.65600538 3.0416921e-39
0.62413681 0.13061516 0.65473497 1.8431671e-39
0.62306142 0.1329841 0.6560154 3.410469e-39
0.62159628 0.13634224 0.65512598 3.2260805e-39
0.62056094 0.13955477 0.65636325 7.3755523e-40
0.62021482 0.14300922 0.65545797 3.0424558e-39
0.61994958 0.14563027 0.65445703 1.0694693e-38
0.61975402 0.14814726 0.65469158 1.1708845e-38
0.6202879 0.15154642 0.65537125 1.1708845e-38
0.62234741 0.15442587 0.65422845 1.1708845e-38
0.6231876 0.15606306 0.65586513 1.1708845e-38
0.62495887 0.15790617 0.65639436 1.3644953e-38
0.64755565 0.10794952 0.65900755 1.0695773e-38
0.64471257 0.10953748 0.6583249 1.1156033e-38
0.64036149 0.11211058 0.65852123 1.1616649e-38
0.64242458 0.11103003 0.65963995 1.1616649e-38
0.63570094 0.11573474 0.6595462 1.1708845e-38
0.63745767 0.11427525 0.65750718 1.1708845e-38
0.63212818 0.11898156 0.65846509 1.1985432e-39
0.63391286 0.11735976 0.65900505 7.3756504e-39
0.62937081 0.12215576 0.6590718 9.2194229e-41
0.63063061 0.12064556 0.65759355 0
0.62681687 0.12534562 0.65945256 7.3755383e-40
0.62812179 0.12385421 0.65791571 9.2194229e-40
0.62527859 0.12784253 0.65864468 1.0137778e-39
0.62349272 0.13199843 0.65813375 7.371951e-40
0.62418371 0.13031265 0.65862638 1.198525e-39
0.62276459 0.13357018 0.65899748 4.6097114e-40
0.62180775 0.13580704 0.65838325 5.5316537e-40
0.62053859 0.13932548 0.65901911 1.8438846e-40
0.62021226 0.14266118 0.65940773 7.3756504e-40
0.61994082 0.14580008 0.6588552 8.5741936e-39
0.61978996 0.14791282 0.6572845 1.1708845e-38
0.61955887 0.15041611 0.65756077 1.1708845e-38
0.62210226 0.15484464 0.65847218 1.2630801e-38
0.62450743 0.15584163 0.65955621 1.3644953e-38
0.62651104 0.1579922 0.65718788 1.3644953e-38
0.62884313 0.15812145 0.65838033 1.3644953e-38
0.64776087 0.10781683 0.66138911 1.0695415e-38
0.6425994 0.11088789 0.66205287 1.1432618e-38
0.64517355 0.10935567 0.66172266 1.0972002e-38
0.63770342 0.11396429 0.66245741 1.1708845e-38
0.64014637 0.11242922 0.66225553 1.1708845e-38
0.63586259 0.11558239 0.66197348 1.1708845e-38
0.63749087 0.11410621 0.66009039 1.1708845e-38
0.63235438 0.11883351 0.6608206 1.3829344e-39
0.63413584 0.11721395 0.66136283 8.5741936e-39
0.62923062 0.12194307 0.6618529 0
0.63072884 0.12038106 0.66140801 9.219563e-41
0.62669569 0.12512887 0.66221094 0
0.6280238 0.12364447 0.66065258 1.8438846e-40
0.62529612 0.12764406 0.66124356 1.8438846e-40
0.62345403 0.13178173 0.66080129 1.8438846e-40
0.62414241 0.12999603 0.66260231 1.0137778e-39
0.62236691 0.13413358 0.66208637 1.3825547e-39
0.62131763 0.13670316 0.66071409 0
0.62052178 0.13909811 0.66165823 1.3829134e-39
0.62020063 0.14242837 0.66203916 4.6097675e-40
0.61988533 0.14575619 0.6624133 6.730281e-39
0.6196034 0.14888567 0.6618759 1.1708845e-38
0.61942458 0.15119058 0.66121691 1.1708845e-38
0.62097746 0.15362234 0.66111761 1.3644953e-38
0.62174475 0.15353771 0.66282171 1.1708845e-38
0.62567812 0.1558435 0.66079372 1.1708845e-38
0.62285572 0.10527354 0.66369176 4.0429226e-39
0.64871591 0.10770629 0.66421485 1.2078348e-38
0.64288408 0.11076182 0.66433227 1.1432618e-38
0.6453442 0.10921612 0.66413367 1.0879806e-38
0.63799381 0.11383438 0.66472697 1.1708845e-38
0.64043397 0.11230123 0.66453004 1.1708845e-38
0.63574821 0.11538909 0.6647104 1.1708845e-38
0.63259661 0.11859741 0.66444993 1.8431923e-39
0.63419831 0.11704404 0.66389823 8.7585848e-39
0.62940699 0.12178259 0.66425407 1.0137778e-39
0.63100004 0.12014547 0.66500252 2.7658689e-40
0.62677383 0.1249465 0.6647253 5.1618006e-39
0.62788671 0.12342908 0.66342419 1.6591374e-39
0.62553018 0.12713413 0.66444606 3.0416921e-39
0.62341559 0.13156587 0.66345835 3.6870517e-39
0.62410259 0.12978384 0.66525376 3.410469e-39
0.62233812 0.13391487 0.66472721 3.5948574e-39
0.62128329 0.13636905 0.66466832 3.3175573e-39
0.62050498 0.1388716 0.66428709 2.8573036e-39
0.62018913 0.14219645 0.66466045 5.5281224e-40
0.61994976 0.14553341 0.66494346 6.6370064e-39
0.61976004 0.14887811 0.66516763 1.1708845e-38
0.61961782 0.15138531 0.66533577 1.1708845e-38
0.62204748 0.15335289 0.66506958 1.1708845e-38
0.64923108 0.10753697 0.66752571 1.0695773e-38
0.64281845 0.11058679 0.66700208 1.1340424e-38
0.64545941 0.10898842 0.66789293 1.0879806e-38
0.63828349 0.11370485 0.66699004 1.1708845e-38
0.64072078 0.11217359 0.66679794 1.1708845e-38
0.63497192 0.11603908 0.66690254 1.0601418e-38
0.61027944 0.11934502 0.66726089 1.097128e-38
0.63166612 0.11912178 0.66812205 3.1252921e-39
0.62935859 0.12158628 0.66690779 1.1956579e-39
0.62770158 0.12370913 0.66710496 1.749182e-39
0.6255933 0.12719558 0.66740239 1.2878535e-39
0.62338901 0.13124931 0.66738701 1.9314195e-39
0.62411571 0.12958181 0.66783321 1.7473912e-39
0.62232614 0.13370009 0.66733837 1.7473912e-39
0.60657281 0.13721851 0.66780168 1.1708845e-38
0.6205768 0.13781774 0.66680157 1.3796904e-39
0.62129486 0.13604525 0.66854846 3.6752261e-39
0.62048173 0.13949004 0.66691363 1.6551997e-39
0.62033904 0.14199746 0.66708165 2.7583103e-39
0.62014896 0.14533892 0.66730547 8.6602711e-39
0.61995906 0.1486783 0.66752917 1.1708845e-38
0.6198166 0.15118152 0.66769695 1.1708845e-38
0.62251937 0.15489827 0.66711164 1.1708845e-38
0.62425339 0.15671949 0.66767216 1.1708845e-38
0.6501075 0.10741726 0.67041647 1.0695773e-38
0.64230001 0.11034864 0.67017406 1.1340424e-38
0.6463387 0.10886703 0.67077488 1.0879806e-38
0.63827276 0.11353169 0.66958827 1.1708845e-38
0.64020574 0.11193109 0.66996932 1.1708845e-38
0.63397419 0.11656405 0.67063081 1.0598537e-38
0.63614786 0.11509886 0.66943318 1.1708845e-38
0.63180077 0.11896044 0.67054975 5.7870894e-39
0.62938619 0.12190621 0.67032355 4.960207e-39
0.62744212 0.12457286 0.6704222 4.5928636e-39
0.62557983 0.12724316 0.67043394 4.8683715e-39
0.62352955 0.13096428 0.67110091 5.7863691e-39
0.62424695 0.12940137 0.6702652 5.3275504e-39
0.62251258 0.1331711 0.67056727 5.4190258e-39
0.62062991 0.13749829 0.67061877 5.6945336e-39
0.62133253 0.13583609 0.67108721 5.8778459e-39
0.62046909 0.140108 0.66951746 5.7867293e-39
0.62032676 0.14261058 0.66968453 6.1551531e-39
0.62018454 0.14511187 0.66985142 8.931819e-39
0.62007624 0.14846224 0.6699785 1.1708845e-38
0.62019682 0.15186065 0.669837 1.1708845e-38
0.62263721 0.15467203 0.6695618 1.1708845e-38
0.62436837 0.15648994 0.67012376 1.1708845e-38
0.65035784 0.10721416 0.67399335 1.1708845e-38
0.64277828 0.11016954 0.6734913 1.1248228e-38
0.64578509 0.10862998 0.67396545 1.078761e-38
0.63793939 0.11322675 0.67382598 1.1708845e-38
0.64006257 0.11165938 0.6739887 1.1708845e-38
0.63504171 0.11560901 0.67327106 1.1430819e-38
0.63610977 0.11474543 0.67462099 1.1708845e-38
0.63179308 0.11902973 0.67355925 6.4306581e-39
0.62873161 0.12280444 0.67279565 6.0615169e-39
0.63001955 0.1211317 0.67388242 6.2448292e-39
0.62630415 0.12597635 0.67302781 6.0615169e-39
0.62746209 0.12428661 0.67425847 6.2448292e-39
0.62522519 0.12748054 0.67427564 6.2448292e-39
0.6236614 0.13078202 0.67352062 6.1529937e-39
0.62437773 0.12922153 0.67268914 6.0615169e-39
0.62252331 0.13320896 0.67355835 6.1529923e-39
0.62068701 0.13718119 0.67441231 6.2448278e-39
0.62138742 0.13563097 0.67359644 6.2448278e-39
0.62056887 0.13979195 0.67326516 6.1529923e-39
0.62052506 0.14282982 0.67374468 6.3373835e-39
0.62042123 0.14512922 0.67300922 8.2828496e-39
0.62038648 0.14816767 0.67347795 1.0320513e-38
0.62029636 0.15151286 0.67358315 1.1153512e-38
0.62091511 0.15404569 0.67414659 1.1708845e-38
0.62372142 0.1560934 0.67345095 1.1708845e-38
0.62729102 0.15806235 0.67445564 1.1708845e-38
0.64296049 0.10994982 0.677127 1.1156391e-38
0.64556104 0.10843897 0.67677462 1.0695415e-38
0.63862914 0.11307281 0.67688644 1.1708845e-38
0.6409359 0.11153449 0.67684412 1.1616651e-38
0.63439548 0.11618651 0.67656785 1.1523375e-38
0.63633084 0.11460549 0.67692858 1.1708845e-38
0.63220626 0.11856969 0.67650288 6.8930768e-39
0.62884772 0.12253982 0.67650628 6.2448278e-39
0.63017195 0.1209704 0.67626929 6.2448278e-39
0.62623411 0.12576884 0.67567348 6.2448278e-39
0.62752676 0.12410528 0.67674446 6.2448278e-39
0.62498689 0.12808236 0.67711067 6.2448278e-39
0.62379283 0.13060039 0.67593211 6.2448278e-39
0.6245082 0.1290423 0.67510486 6.2448278e-39
0.62254179 0.13324749 0.67652655 6.2448278e-39
0.62093878 0.13701144 0.67668074 6.2448278e-39
0.62150604 0.13543853 0.67602241 6.2448278e-39
0.62033677 0.13941288 0.67737955 6.2451879e-39
0.61998153 0.15107889 0.67779177 1.1708845e-38
0.6204046 0.15368524 0.67730075 1.1708845e-38
0.62443912 0.15599841 0.67518473 1.1708845e-38
0.62800771 0.15796578 0.67619228 1.1708845e-38
0.64319277 0.10981955 0.67941576 1.1064196e-38
0.64650846 0.10832927 0.67954302 1.0603579e-38
0.63872445 0.11291756 0.67932844 1.1708845e-38
0.640692 0.1113337 0.6796661 1.1524814e-38
0.63462555 0.11604585 0.67885816 1.1708845e-38
0.63676202 0.11449733 0.67899162 1.1708845e-38
0.63237047 0.11841499 0.67886758 7.171463e-39
0.63316715 0.11751503 0.68050838 8.8381828e-39
0.62909931 0.12229865 0.68004429 6.2448278e-39
0.63042146 0.12073298 0.67980933 6.2448278e-39
0.62646341 0.12551565 0.6792388 6.2448278e-39
0.62769616 0.12394207 0.67910147 6.2448278e-39
0.62507534 0.12789848 0.67955899 6.2448278e-39
0.62367076 0.13086604 0.67947578 6.2448278e-39
0.62242168 0.13350546 0.68006659 6.2448278e-39
0.62158084 0.13572644 0.67933917 6.2448278e-39
0.62061822 0.13924602 0.67960358 6.2448292e-39
0.61967617 0.14228113 0.67899561 7.26366e-39
0.61914951 0.14587922 0.67875761 1.1523733e-38
0.61961836 0.14888674 0.67991114 1.1708845e-38
0.62002122 0.15168045 0.68029398 1.1708845e-38
0.6203028 0.15341488 0.67996836 1.1708845e-38
0.62335604 0.15550859 0.67898989 1.1708845e-38
0.6270299 0.15749443 0.67986375 1.1708845e-38
0.63055712 0.15945284 0.68092692 1.1708845e-38
0.64412534 0.10970653 0.68218631 1.097236e-38
0.64745378 0.10821982 0.6823051 1.0603938e-38
0.6385541 0.11272423 0.68205911 1.1708845e-38
0.64084232 0.11118982 0.68203712 1.1524814e-38
0.63512111 0.11585867 0.68210942 1.1708845e-38
0.63694054 0.11426643 0.68259919 1.1708845e-38
0.63193572 0.11901192 0.68190187 6.2448278e-39
0.6335181 0.11739144 0.6826489 9.6715434e-39
0.6292786 0.12214056 0.68237895 6.2448278e-39
0.63070917 0.12050286 0.68328983 6.2448278e-39
0.62691218 0.12530082 0.68253714 6.2448278e-39
0.62803191 0.12371199 0.6825282 6.2448278e-39
0.62555224 0.12743711 0.68239921 6.2448278e-39
0.62324303 0.13177066 0.68166268 6.2448278e-39
0.62406355 0.13003767 0.68325716 6.2448278e-39
0.62238097 0.13412505 0.68265253 6.2448278e-39
0.62159479 0.13659492 0.68228751 6.2448278e-39
0.62052339 0.13984312 0.68225402 6.3370248e-39
0.62109911 0.13828203 0.68159062 6.2448278e-39
0.61953259 0.14250728 0.68255037 7.6346019e-39
0.61916494 0.14553238 0.68255186 1.1246066e-38
0.61929166 0.14877832 0.68367326 1.1708845e-38
0.61973619 0.15137546 0.68316108 1.1708845e-38
0.62011212 0.15312628 0.68272787 1.1708845e-38
0.62255788 0.15508302 0.68244934 1.1708845e-38
0.62617648 0.15705232 0.68337578 1.1708845e-38
0.64157629 0.1109652 0.68627465 1.1432618e-38
0.64475673 0.1095522 0.68528032 1.0972e-38
0.64795798 0.10813008 0.68427926 1.0695415e-38
0.64833766 0.10802374 0.68638456 1.0695773e-38
0.63896239 0.11261566 0.68413365 1.1708845e-38
0.64030313 0.11179425 0.685166 1.1524814e-38
0.63574886 0.11569238 0.68519896 1.1708845e-38
0.63755423 0.11410109 0.68570405 1.1708845e-38
0.63234878 0.11880624 0.68522942 6.2448278e-39
0.63414776 0.11722283 0.68573087 1.0597458e-38
0.62973714 0.12193541 0.68565118 6.2448278e-39
0.630916 0.12035261 0.68558264 6.2448278e-39
0.62791824 0.1245896 0.68560737 6.2448278e-39
0.62573832 0.12776449 0.68555886 6.2448278e-39
0.62339962 0.13149053 0.68527889 6.2448278e-39
0.6243329 0.12988321 0.68547702 6.2448278e-39
0.62255204 0.13394625 0.68498611 6.2448278e-39
0.62132508 0.1370551 0.6863898 6.2448292e-39
0.62047452 0.13961232 0.68484128 6.2451879e-39
0.62108874 0.13806167 0.68413609 6.2448278e-39
0.61989176 0.14199904 0.6855104 6.893437e-39
0.61970413 0.14529406 0.68572575 1.0875484e-38
0.61938983 0.14856049 0.68608665 1.1708845e-38
0.62022775 0.15226789 0.68596572 1.1708845e-38
0.62352419 0.15492025 0.68513715 1.1708845e-38
0.62681943 0.15694192 0.68517178 1.1708845e-38
0.62950039 0.15896107 0.68465763 1.1708845e-38
0.62714076 0.16344526 0.6848985 1.1245707e-38
0.63318735 0.087657429 0.68953001 8.2824909e-39
0.64871645 0.10791767 0.68848473 1.0695773e-38
0.64190024 0.1108474 0.68843156 1.1340423e-38
0.64527965 0.10938375 0.68847883 1.0787969e-38
0.63791835 0.11398476 0.68781596 1.1708845e-38
0.63968468 0.11238608 0.68836904 1.1708845e-38
0.63625044 0.11550814 0.68841398 1.1708845e-38
0.63282305 0.11861117 0.68847382 6.4302994e-39
0.63458842 0.11702608 0.68901169 1.1152792e-38
0.63061708 0.12096022 0.68843597 6.2448292e-39
0.62833697 0.12412555 0.68849039 6.2448292e-39
0.62233669 0.12863414 0.68812627 7.3742197e-39
0.62613499 0.12729119 0.68846571 6.2448292e-39
0.62369359 0.13123649 0.68872178 6.2448292e-39
0.6244725 0.12970641 0.68783712 6.2448292e-39
0.62269622 0.13341621 0.68818021 6.2448292e-39
0.62133265 0.13684127 0.68889678 6.2451893e-39
0.62064171 0.13983189 0.68884677 6.6157711e-39
0.62037897 0.14207277 0.68830937 6.7083254e-39
0.62003267 0.14512977 0.68786824 9.6715434e-39
0.61970842 0.14838985 0.6882391 1.1708845e-38
0.61946565 0.15083274 0.68851691 1.1708845e-38
0.62321663 0.15448086 0.6892634 1.1708845e-38
0.62564617 0.15643208 0.68901891 1.1708845e-38
0.62808597 0.15839158 0.68877339 1.1708845e-38
0.61399329 0.16984926 0.68923813 9.220272e-39
0.64923292 0.10775235 0.69167858 1.0695773e-38
0.64228666 0.11065751 0.69176257 1.1248228e-38
0.64572591 0.10920553 0.69174802 1.0695773e-38
0.63804793 0.11374979 0.69143128 1.1708845e-38
0.63971025 0.11222344 0.6908474 1.1708845e-38
0.63472366 0.11687128 0.6913659 1.161593e-38
0.63639158 0.11527069 0.69201511 1.1708845e-38
0.63161391 0.11991748 0.69232899 9.4860731e-39
0.63304108 0.11846644 0.69073731 8.3746851e-39
0.63084137 0.12081276 0.69069189 6.9859927e-39
0.62870854 0.1236564 0.6914137 7.8193519e-39
0.62641269 0.1268003 0.69149357 7.7267962e-39
0.6239205 0.1310735 0.69097155 6.9859927e-39
0.62471366 0.12944809 0.69132501 7.5413259e-39
0.62271374 0.13369656 0.69150347 8.0973794e-39
0.62140381 0.13664025 0.69132215 8.189575e-39
0.620749 0.1398361 0.69206583 1.0875484e-38
0.62037271 0.14308012 0.69249314 1.1708845e-38
0.62012458 0.14511786 0.69110745 1.0875126e-38
0.61979127 0.14817059 0.69065356 1.1708845e-38
0.61979812 0.15168834 0.69147944 1.1708845e-38
0.62912029 0.15978529 0.69261831 1.1708845e-38
0.64299434 0.11051384 0.69472867 1.1801762e-38
0.6463263 0.10904964 0.69483316 1.0880168e-38
0.63823575 0.11352451 0.6949656 1.1708845e-38
0.64003736 0.11202225 0.69423068 1.1985432e-38
0.63495815 0.11664505 0.69484603 1.1708845e-38
0.63654882 0.11512262 0.69433498 1.1708845e-38
0.63194591 0.11978927 0.69445252 1.1708845e-38
0.63331532 0.11824219 0.6941762 1.1616649e-38
0.62931985 0.12288834 0.6948874 1.1708845e-38
0.63061339 0.12133785 0.69468939 1.1708845e-38
0.62808913 0.1245402 0.69377244 1.1708485e-38
0.6263864 0.12684658 0.69443464 1.1616289e-38
0.62453246 0.13029094 0.69444126 1.1338623e-38
0.62313628 0.1332199 0.69435394 1.1708845e-38
0.62174326 0.13614345 0.6942656 1.1708845e-38
0.62074023 0.1396147 0.69457018 1.1708845e-38
0.62027967 0.14283584 0.69509137 1.1708845e-38
0.61983156 0.14605451 0.69559842 1.1708845e-38
0.61963153 0.14809906 0.69416469 1.1708845e-38
0.61966425 0.1507857 0.69495803 1.1708845e-38
0.62069511 0.15368569 0.69462126 1.1708845e-38
0.62487519 0.15742531 0.69488621 1.1893236e-38
0.62938178 0.15958889 0.69481832 1.1893236e-38
0.64432091 0.11045802 0.69701004 1.1709207e-38
0.64735305 0.10895313 0.69744623 1.0695415e-38
0.63855904 0.1134041 0.69709396 1.244641e-38
0.64032674 0.11265488 0.6976397 1.2354214e-38
0.64209545 0.11190618 0.69818914 1.2262019e-38
0.62809479 0.11676547 0.69634539 1.8421301e-39
0.63527691 0.11643276 0.69821781 1.1708845e-38
0.63682461 0.11490758 0.69775516 1.1708845e-38
0.62938941 0.11718589 0.6968165 1.0967681e-38
0.63243091 0.11959583 0.69763923 1.1708845e-38
0.63377613 0.11804801 0.69739372 1.1708845e-38
0.62961805 0.1227509 0.69703919 1.1708845e-38
0.63110375 0.12114201 0.6978696 1.1708845e-38
0.62800318 0.12482706 0.69718248 1.1708845e-38
0.62623382 0.12745675 0.69708931 1.1708845e-38
0.62496769 0.12982358 0.69726622 1.1708845e-38
0.62356436 0.13274693 0.69718534 1.1708845e-38
0.62178701 0.13642026 0.69752914 1.1708845e-38
0.62086523 0.13942008 0.69691449 1.1708845e-38
0.62038982 0.14263295 0.69745052 1.1708845e-38
0.61993253 0.14584437 0.69796604 1.1708845e-38
0.61969161 0.14909633 0.69823766 1.1708845e-38
0.62013537 0.15166739 0.69773734 1.1708845e-38
0.62074435 0.15345135 0.69705075 1.1708845e-38
0.62248677 0.15523981 0.69756913 1.1893236e-38
0.62645006 0.15739784 0.69684851 1.1893236e-38
0.62789094 0.1573409 0.6989584 1.1708845e-38
0.63043797 0.15957089 0.69612807 1.1893236e-38
0.64497823 0.11030865 0.70000958 1.0879806e-38
0.6457895 0.11026173 0.70160091 1.1802122e-38
0.64903742 0.10886857 0.70057821 1.2631524e-38
0.63989025 0.1132646 0.70058674 1.1708845e-38
0.64242852 0.11178992 0.70029885 1.1524454e-38
0.63555723 0.11630222 0.7003814 1.1708845e-38
0.63737762 0.11473487 0.70085776 1.1708845e-38
0.63276619 0.11937973 0.70097756 1.1708845e-38
0.63418907 0.11784762 0.70064688 1.1708845e-38
0.62980998 0.12259658 0.69930196 1.1708845e-38
0.63071358 0.1217272 0.70077211 1.1708845e-38
0.62815768 0.12515312 0.70030898 1.1708845e-38
0.62602729 0.12829791 0.70020658 1.1708845e-38
0.62449646 0.1311954 0.7002666 1.1708845e-38
0.62333912 0.13356884 0.70032346 1.1708845e-38
0.62217045 0.135934 0.70039725 1.1708845e-38
0.62087107 0.14002866 0.69938439 1.1708845e-38
0.62120616 0.13884789 0.70065379 1.1708845e-38
0.62060118 0.14245105 0.69968748 1.1708845e-38
0.62108004 0.14232285 0.70161772 1.1708845e-38
0.62066853 0.14565009 0.7008456 1.1708845e-38
0.62042022 0.14866005 0.70071316 1.1708845e-38
0.62014353 0.15142831 0.70020163 1.1708845e-38
0.62075144 0.15320875 0.6995188 1.1708845e-38
0.62114626 0.15305088 0.70154363 1.1893236e-38
0.62456816 0.15520154 0.70018661 1.1893236e-38
0.62834066 0.15719055 0.70092875 1.1708845e-38
0.65807271 0.10141432 0.70240426 1.1616289e-38
0.64724886 0.11022553 0.70372349 1.1617731e-38
0.64966476 0.1103226 0.70482582 1.7240583e-38
0.65192032 0.11047663 0.70488155 1.7240583e-38
0.6550234 0.11074763 0.70405054 1.6410822e-38
0.64036095 0.11308382 0.70376652 1.1708845e-38
0.64308822 0.11163917 0.70327872 1.1801042e-38
0.63735771 0.11539584 0.70334059 1.1708845e-38
0.63390362 0.11845903 0.70342219 1.1708845e-38
0.6312753 0.12129768 0.70343518 1.1708845e-38
0.62905097 0.12443459 0.70342523 1.1708845e-38
0.62619138 0.12861636 0.7033084 1.1708845e-38
0.62726712 0.12705135 0.70334613 1.1708845e-38
0.62492329 0.13072805 0.70307541 1.1708845e-38
0.62339705 0.1340941 0.70395201 1.1708845e-38
0.62252289 0.13599375 0.70328635 1.1708845e-38
0.62160999 0.13891184 0.70348573 1.1708845e-38
0.6213026 0.14214426 0.70382851 1.1708845e-38
0.62099695 0.14619625 0.70416933 1.1708845e-38
0.62109292 0.14457068 0.7040624 1.1708845e-38
0.62082505 0.14898054 0.70354193 1.1708845e-38
0.62062418 0.151291 0.70212799 1.1708845e-38
0.62220818 0.15209344 0.70404708 1.4105931e-38
0.62276006 0.15575814 0.70440799 1.2061423e-38
0.62482679 0.15488932 0.70359141 1.2907388e-38
0.62725377 0.15670264 0.70458883 1.1708845e-38
0.63287991 0.157442 0.70331353 1.5212279e-38
0.64157468 0.11301187 0.70613384 1.3183975e-38
0.64356303 0.11229779 0.70644486 1.2354935e-38
0.6464417 0.11162879 0.70703506 1.4106292e-38
0.64964408 0.11183967 0.70729429 1.5949844e-38
0.65190583 0.11199754 0.7073431 1.5949844e-38
0.65417576 0.11215597 0.70739198 1.5949844e-38
0.6376797 0.11602148 0.70666599 1.1708845e-38
0.63974297 0.1144949 0.70688295 1.2077626e-38
0.65660346 0.11402457 0.70728397 2.0836571e-38
0.63429332 0.11859048 0.70585698 1.1708845e-38
0.63604212 0.11752091 0.70721728 1.1708845e-38
0.63133532 0.1216168 0.70663643 1.1708845e-38
0.62917244 0.12475523 0.706559 1.1708845e-38
0.6267103 0.12841268 0.70641142 1.1708845e-38
0.62777019 0.12684795 0.70646888 1.1708845e-38
0.62511772 0.13104503 0.70612985 1.1708845e-38
0.62357414 0.13474336 0.70620614 1.1708845e-38
0.62435502 0.13365182 0.70697206 1.1801041e-38
0.622679 0.13738751 0.7063821 1.1801041e-38
0.62214589 0.13951321 0.70656538 1.1708845e-38
0.6221475 0.14197879 0.70656407 1.244641e-38
0.62212133 0.14526057 0.70659328 1.4843496e-38
0.62226117 0.14857683 0.706438 1.4659105e-38
0.62352169 0.1511911 0.7062642 1.1708845e-38
0.62505591 0.15292536 0.70701343 1.1708845e-38
0.62572414 0.15416808 0.7062766 1.3737149e-38
0.62781972 0.15657951 0.70641446 1.5488866e-38
0.64370245 0.11299033 0.70873648 1.2354576e-38
0.6463176 0.11312136 0.70960522 1.4752024e-38
0.64899397 0.11326057 0.71041846 1.4660547e-38
0.65159619 0.11347048 0.71010643 2.1020604e-38
0.63880754 0.11593507 0.70910984 1.2354214e-38
0.64089471 0.11491147 0.71011543 1.1524812e-38
0.6554516 0.11554486 0.70849162 2.0836571e-38
0.6350826 0.11894364 0.70947444 1.1616649e-38
0.63708651 0.11742058 0.70974505 1.1801041e-38
0.63225627 0.12124664 0.7088868 1.1708845e-38
0.63345617 0.1204318 0.71001863 1.1616649e-38
0.62923497 0.12506488 0.70974302 1.1708845e-38
0.63048315 0.12352906 0.70959842 1.1708845e-38
0.62783009 0.12715088 0.70965523 1.1708845e-38
0.62609828 0.13057855 0.70952415 1.1708845e-38
0.64848042 0.13056633 0.70876753 1.1156391e-38
0.62546593 0.13351353 0.70981282 1.1708845e-38
0.62376231 0.13703549 0.70844042 1.1801041e-38
0.62459111 0.13698053 0.7099632 1.1708845e-38
0.62358218 0.14017853 0.70985645 1.1524452e-38
0.62403101 0.13933674 0.7105788 1.1524094e-38
0.62348932 0.14211209 0.70955318 1.1431898e-38
0.62377721 0.14490673 0.70923561 1.1247865e-38
0.62422329 0.14594017 0.71036744 1.0602134e-38
0.62398696 0.14858602 0.70819271 1.4843496e-38
0.62512642 0.14878653 0.71018618 1.2999224e-38
0.62533951 0.15151238 0.70914096 1.392118e-38
0.6278128 0.1520915 0.71007991 1.6226431e-38
0.62865543 0.15391973 0.70915836 1.5488866e-38
0.6310513 0.15442801 0.70938629 1.539667e-38
0.6408115 0.11589567 0.71182317 1.3091417e-38
0.6431759 0.11546814 0.71253663 1.2999582e-38
0.64604688 0.115114 0.71272415 1.8531322e-38
0.6498282 0.1157264 0.71196693 2.0651821e-38
0.65261209 0.11680814 0.71146882 2.0651821e-38
0.63721818 0.11834225 0.71243697 1.1154948e-38
0.64042544 0.11741222 0.71344656 1.1155307e-38
0.65124315 0.11827901 0.71290416 1.9545474e-38
0.6549589 0.11866789 0.71143979 2.0559625e-38
0.63243026 0.12192009 0.71113008 1.1616649e-38
0.63401902 0.12083259 0.71264678 1.0233353e-38
0.65279371 0.12001631 0.71370178 1.9453278e-38
0.62988859 0.12498608 0.71146113 1.1708845e-38
0.63151032 0.12390769 0.71293443 1.1616289e-38
0.62874484 0.12726131 0.71270466 1.1893235e-38
0.62670183 0.13120878 0.71250719 1.1247867e-38
0.62737525 0.12958656 0.71298367 1.1432258e-38
0.62609988 0.13390401 0.71235627 1.1340062e-38
0.62555826 0.13684669 0.71254408 1.1801041e-38
0.62521106 0.14006093 0.71292394 1.2262019e-38
0.62520063 0.14251852 0.71293545 1.2077628e-38
0.62558734 0.14505632 0.71251309 1.4659105e-38
0.62803745 0.14603266 0.7134738 1.539667e-38
0.62566572 0.1476483 0.7112143 1.6963996e-38
0.62831604 0.14867046 0.71195978 1.5765453e-38
0.63120079 0.14911576 0.71326989 1.5765453e-38
0.62998801 0.15137145 0.711353 1.6963996e-38
0.63160866 0.15147588 0.7120201 1.539667e-38
0.63401234 0.15162602 0.71305805 1.6595213e-38
0.6373263 0.15196556 0.71312791 1.5765453e-38
0.63219219 0.15324934 0.71138799 1.5488866e-38
0.63453031 0.15350677 0.7112869 1.3737147e-38
0.63855749 0.11886925 0.71422976 1.0509217e-38
0.64048588 0.11890569 0.71579742 1.1617007e-38
0.64305961 0.11746878 0.71548104 1.2354935e-38
0.64737999 0.11786639 0.71454316 1.9545474e-38
0.64892155 0.119596 0.71533835 1.9545474e-38
0.63474065 0.12125799 0.71509504 1.0141155e-38
0.63783693 0.12032229 0.71620512 1.0786886e-38
0.65046495 0.12132781 0.71613461 1.9545474e-38
0.65887612 0.12024938 0.71412498 9.0286935e-39
0.63188654 0.12427122 0.71574944 1.1432258e-38
0.6292479 0.12788087 0.71578324 1.1985432e-38
0.63042629 0.12634416 0.71571678 1.1708845e-38
0.62781805 0.13052863 0.71532255 1.1708845e-38
0.626939 0.13351133 0.71466804 1.2354214e-38
0.62785745 0.13347508 0.71608382 1.1708845e-38
0.62677145 0.13675964 0.71485019 1.3091779e-38
0.62770414 0.13672504 0.71624994 1.1708845e-38
0.62661016 0.14000738 0.71502554 1.3091779e-38
0.62744862 0.13995355 0.71652675 1.1708845e-38
0.62664562 0.14247291 0.71498698 1.5304114e-38
0.62814224 0.14254749 0.71577537 1.604204e-38
0.62855005 0.14489107 0.71452934 1.5673257e-38
0.6314919 0.14565437 0.71537203 1.6226431e-38
0.631823 0.14799127 0.71420908 1.6595213e-38
0.63471913 0.1485935 0.71531868 1.5581061e-38
0.63587505 0.15001072 0.71468312 1.6503018e-38
0.63757002 0.15012786 0.71528405 1.6410822e-38
0.64365757 0.11904661 0.71725976 1.6134955e-38
0.63572621 0.12172616 0.71725267 1.152445e-38
0.63739455 0.12172343 0.71907973 1.1340423e-38
0.64010632 0.12032494 0.71860528 1.1156391e-38
0.64497983 0.12064709 0.71947122 1.8162539e-38
0.63153607 0.12451302 0.71933264 1.4290323e-38
0.63362598 0.12312303 0.71829528 1.4106292e-38
0.6297428 0.12767735 0.71885878 1.1708845e-38
0.6303792 0.12614664 0.71817428 1.1708845e-38
0.62919593 0.13013694 0.71824658 1.1708845e-38
0.62870866 0.13308661 0.71837097 1.1708845e-38
0.62802911 0.13657658 0.71830428 1.1708845e-38
0.62814957 0.14007522 0.71897441 1.1708845e-38
0.62906551 0.14239979 0.71838677 1.1616649e-38
0.63142157 0.14428374 0.71825492 1.2446409e-38
0.6345365 0.1462131 0.71852309 1.2630801e-38
0.63789892 0.14819872 0.71854454 1.3183975e-38
0.63551664 0.12297474 0.72226894 1.1248227e-38
0.63811713 0.12156958 0.72190583 1.0603219e-38
0.641294 0.12024616 0.7209475 1.8162539e-38
0.64523309 0.12216566 0.72160035 1.8162539e-38
0.65659958 0.12100857 0.72040039 1.4936052e-38
0.63140696 0.12545907 0.72106761 1.1708845e-38
0.63410342 0.12374595 0.72138047 1.1616649e-38
0.63036418 0.1274967 0.72178376 1.1708845e-38
0.62932587 0.12986536 0.72170103 1.1708845e-38
0.62830073 0.13328816 0.72200322 1.1708845e-38
0.62795925 0.13655891 0.72157383 1.1708845e-38
0.62892282 0.13939331 0.72133631 1.1708845e-38
0.62997043 0.14224917 0.72101033 1.1893236e-38
0.63097471 0.14222752 0.72232586 1.1893236e-38
0.63298702 0.14426136 0.72017735 1.3276171e-38
0.63450068 0.14422897 0.72215283 1.1893236e-38
0.63753772 0.14625257 0.72132325 1.2538606e-38
0.63958466 0.14632508 0.72274625 1.4474714e-38
0.63981384 0.14824486 0.72011387 1.3276171e-38
0.63780725 0.12257204 0.72461712 1.3184697e-38
0.64036143 0.12156968 0.72431356 1.5761131e-38
0.63210464 0.12577882 0.72469687 1.1524454e-38
0.63419473 0.12430575 0.72486025 1.2999584e-38
0.63141483 0.12787117 0.72503352 1.1523733e-38
0.62980068 0.13056995 0.72357941 1.1708845e-38
0.63035709 0.12975308 0.72417581 1.1615569e-38
0.62910318 0.13289264 0.72432411 1.1708126e-38
0.63001227 0.13204132 0.72573274 1.1611607e-38
0.62897742 0.13613114 0.72445786 1.1612329e-38
0.62959248 0.13869357 0.72380167 1.1708845e-38
0.63033056 0.13978137 0.72460103 1.2169823e-38
0.63197857 0.14220586 0.72364098 1.1892876e-38
0.63397032 0.14226794 0.72509789 1.2902706e-38
0.63724244 0.14432821 0.72402179 1.4474714e-38
0.6403814 0.14543846 0.72429252 1.4380359e-38
0.63476211 0.12575741 0.72782135 1.152265e-38
0.63752168 0.1243941 0.72729164 1.3368366e-38
0.6409927 0.12304571 0.7272166 1.3830428e-38
0.64549518 0.12350012 0.72609228 1.5661374e-38
0.63232923 0.12831722 0.7272293 1.0955427e-38
0.63419163 0.12729439 0.72842133 1.0043193e-38
0.63136971 0.13117115 0.72784907 1.0845955e-38
0.62957096 0.13359143 0.72620225 1.1416775e-38
0.63089097 0.13352883 0.72835588 1.2035859e-38
0.62943268 0.13519502 0.72634935 1.1227702e-38
0.63119066 0.1360267 0.72803885 1.2411841e-38
0.63192391 0.13942429 0.72726279 1.1148106e-38
0.63547599 0.14223552 0.7270698 1.1231662e-38
0.63636065 0.14219096 0.72850835 1.1040789e-38
0.64089024 0.14449453 0.72613722 1.1327819e-38
0.64256209 0.14460221 0.72676665 1.4736177e-38
0.63787603 0.12581232 0.7304666 1.3621189e-38
0.64060134 0.12495617 0.73038167 1.3613987e-38
0.63461936 0.12832843 0.72954768 1.0958668e-38
0.63684839 0.12784843 0.73114586 1.2537525e-38
0.64329207 0.12624873 0.73073894 1.8837811e-38
0.64532804 0.12804469 0.73099613 1.8474427e-38
0.63248277 0.1318877 0.7302196 1.3414472e-38
0.63410664 0.13075674 0.73087186 1.277882e-38
0.63261575 0.13353968 0.73007965 1.3230441e-38
0.63306969 0.13342142 0.73195887 1.0841636e-38
0.63282174 0.13520575 0.72986287 1.3230441e-38
0.63346601 0.13627428 0.73075771 1.157668e-38
0.63445908 0.139378 0.73050195 1.240428e-38
0.63776302 0.14224651 0.72940421 1.4713851e-38
0.64010841 0.14248362 0.7293207 1.4712052e-38
0.64246321 0.14272168 0.72923678 1.4620216e-38
0.64777374 0.10555653 0.73294288 1.5551896e-38
0.63816863 0.1283647 0.73290843 1.4106653e-38
0.64007485 0.12816443 0.73406357 1.4660546e-38
0.6351825 0.13187453 0.73327494 1.121762e-38
0.63699341 0.13036892 0.73373753 1.2811234e-38
0.63435972 0.13335437 0.73413289 1.1210779e-38
0.63492411 0.13565952 0.73315287 1.2322167e-38
0.63655221 0.13680589 0.73419571 1.2036578e-38
0.637353 0.13939989 0.73336405 1.304749e-38
0.64028329 0.14045416 0.73384821 1.2590112e-38
0.64335978 0.13990116 0.73419619 1.6446845e-38
0.64091402 0.12893471 0.73554093 1.0511023e-38
0.63794982 0.13146579 0.7362591 1.262072e-38
0.63910604 0.13025367 0.7374025 1.0511022e-38
0.64216453 0.13059112 0.7365942 1.8651979e-38
0.6359446 0.13415325 0.73599744 1.2594794e-38
0.63711888 0.13416505 0.73711812 1.4432224e-38
0.63751715 0.13667691 0.73670661 1.0846316e-38
0.64044553 0.13690928 0.73719251 1.6170979e-38
0.64470625 0.13738471 0.73632872 1.5895831e-38
0.63856596 0.13849947 0.73562282 1.0841636e-38
0.64047223 0.13864785 0.73599583 1.3877609e-38
0.63946253 0.13174921 0.73936617 1.078761e-38
0.63817394 0.13415542 0.73836219 1.103683e-38
0.63916457 0.13332197 0.73967183 1.0866482e-38
0.64017129 0.13512929 0.73863906 1.4610856e-38
0.64257967 0.13536391 0.7385025 1.6170979e-38
0.65860748 0.11240206 0.7412073 1.68718e-38
0.64003438 0.13327961 0.74110425 1.4428264e-38
