# .PCD v0.7 - Point Cloud Data file format
VERSION 0.7
FIELDS x y z rgb
SIZE 4 4 4 4
TYPE F F F F
COUNT 1 1 1 1
WIDTH 999
HEIGHT 1
VIEWPOINT 0 0 0 1 0 0 0
POINTS 999
DATA ascii
0.56090021 -0.2784524 0.70097142 1.1708845e-38
0.56109768 -0.27699161 0.70072573 1.1708845e-38
0.56139427 -0.27479827 0.7003569 1.1708845e-38
0.56198561 -0.27168787 0.70086086 1.1708845e-38
0.56238198 -0.26875734 0.70036876 1.1708845e-38
0.5628109 -0.26600778 0.70024997 1.1708845e-38
0.56337166 -0.26270622 0.70038188 1.1708845e-38
0.57406944 -0.26132119 0.70022309 1.1432257e-38
0.56376958 -0.25976464 0.69988865 1.1708845e-38
0.56425834 -0.25867921 0.70176184 1.1708845e-38
0.56436265 -0.25664526 0.70039386 1.1708845e-38
0.56479317 -0.25388566 0.70027477 1.1708845e-38
0.56532037 -0.25055674 0.7004503 1.1708845e-38
0.5658049 -0.24720539 0.70067787 1.1708845e-38
0.56617612 -0.24440905 0.70063293 1.1708845e-38
0.56652009 -0.24142057 0.70020908 1.1708845e-38
0.56694692 -0.23900209 0.70092326 1.1708845e-38
0.56711912 -0.23750599 0.70071131 1.1708845e-38
0.5673871 -0.23526435 0.70038164 1.1708845e-38
0.56791276 -0.23192181 0.70056057 1.1708845e-38
0.56833351 -0.22913666 0.7004565 1.1708845e-38
0.56887037 -0.22597688 0.70103705 1.1708845e-38
0.5692904 -0.2230036 0.70052218 1.1524457e-38
0.56970894 -0.22002487 0.70000911 1.023409e-38
0.57016808 -0.21716769 0.70027184 7.8373894e-39
0.57052296 -0.21505618 0.70066333 7.7451952e-39
0.57098246 -0.21219781 0.70092797 4.9800746e-39
0.571401 -0.20920688 0.70041686 3.2283773e-39
0.5719099 -0.20583715 0.70062047 2.8599577e-39
0.57220268 -0.20297843 0.70067608 2.8599577e-39
0.56960309 -0.19907004 0.70143074 3.0443573e-39
0.57241416 -0.19989389 0.70041823 2.8599577e-39
0.5726257 -0.196807 0.70016032 2.8599577e-39
0.5729661 -0.19435105 0.70098454 2.8599577e-39
0.57311881 -0.19282484 0.70079869 2.8599577e-39
0.57347572 -0.19058239 0.70036435 2.8599577e-39
0.5741964 -0.18747707 0.70072538 2.8599577e-39
0.57467377 -0.18447928 0.7001456 2.8599577e-39
0.57539588 -0.18136819 0.700508 2.8599577e-39
0.57587481 -0.17836165 0.69992733 2.8599577e-39
0.57636178 -0.17814878 0.70181209 2.8599577e-39
0.57663912 -0.17546125 0.70065212 2.8599577e-39
0.57732189 -0.17212631 0.70065212 2.8599577e-39
0.57832015 -0.16909944 0.70068359 2.8599577e-39
0.58057445 -0.16650766 0.70085794 2.8599577e-39
0.58245754 -0.16558816 0.70189625 2.8599577e-39
0.58417434 -0.16437569 0.70108116 2.8599577e-39
0.58627021 -0.16310167 0.70105684 2.8599577e-39
0.58694321 -0.067134954 0.69901919 1.2631523e-38
0.58917719 -0.067734905 0.70049363 1.2354935e-38
0.59139514 -0.068925187 0.70116937 1.1617371e-38
0.58403581 -0.064050868 0.70000994 1.2261652e-38
0.58647799 -0.065374121 0.70080996 9.0326326e-39
0.57857651 -0.060129672 0.69913644 1.2722997e-38
0.58057636 -0.061274607 0.70003086 1.3276171e-38
0.58247536 -0.061818622 0.70187497 1.1893236e-38
0.57745856 -0.058375176 0.70048696 1.3829344e-38
0.61431736 -0.057639137 0.69937015 1.4843496e-38
0.57514644 -0.055602878 0.6999855 1.4566908e-38
0.57675642 -0.055890746 0.70133537 1.3921536e-38
0.6162957 -0.055214368 0.70083433 1.4843496e-38
0.57231969 -0.051759459 0.69929475 1.4382517e-38
0.57418811 -0.052585743 0.70073617 1.3552756e-38
0.62254405 -0.052281864 0.70121282 1.68718e-38
0.57160836 -0.048893169 0.70016372 1.3828983e-38
0.57302141 -0.050124183 0.70091718 1.3368365e-38
0.56935638 -0.045757558 0.69961518 1.4197763e-38
0.57135218 -0.046309244 0.70130175 1.2815193e-38
0.56865811 -0.043586705 0.70005882 1.4105564e-38
0.57036626 -0.043597609 0.7016806 1.2262019e-38
0.5662263 -0.040333636 0.69933176 1.4473984e-38
0.56811988 -0.041154899 0.70071983 1.3275805e-38
0.56559777 -0.037504278 0.70010811 1.3829343e-38
0.56758255 -0.038727298 0.70137978 1.2354213e-38
0.56364417 -0.03386797 0.70004416 1.3829344e-38
0.56506002 -0.035084076 0.70077199 1.2999584e-38
0.56253624 -0.03145181 0.70017815 1.3552758e-38
0.56443393 -0.032266282 0.701545 1.2077628e-38
0.5603773 -0.02796234 0.69996899 7.2849668e-39
0.56195849 -0.029039485 0.70089543 4.8879014e-39
0.55789781 -0.024210308 0.6997574 3.5057068e-39
0.55931544 -0.025415864 0.70046681 3.5057068e-39
0.5567348 -0.021810099 0.69997382 3.1369145e-39
0.5585224 -0.022607483 0.70145684 3.5057068e-39
0.5560385 -0.019409513 0.70084804 3.1369145e-39
0.55424529 -0.016765993 0.70020771 2.8599577e-39
0.55505592 -0.017813716 0.70084238 2.8599577e-39
0.62551439 -0.016945314 0.69913137 1.97295e-38
0.55309331 -0.013850753 0.7008338 3.1369159e-39
0.55088472 -0.010425651 0.70031762 3.1365544e-39
0.55232704 -0.010686679 0.70180106 3.7823035e-39
0.54828066 -0.006748708 0.69948626 2.8599577e-39
0.55005044 -0.0075358641 0.70096236 3.5057096e-39
0.54770696 -0.0040013576 0.70021868 3.7823035e-39
0.54968745 -0.0051854625 0.70142305 3.7823035e-39
0.54597622 -0.00048005581 0.69994408 3.7823035e-39
0.54755759 -0.0014241521 0.7009061 3.7823035e-39
0.54494607 0.0018642424 0.70002073 7.1002126e-39
0.54667813 0.0018585986 0.70153117 5.9942392e-39
0.54242724 0.0049921693 0.69952726 1.1063477e-38
0.54412055 0.0049885241 0.70107996 1.1340064e-38
0.54169589 0.0081037553 0.70047092 1.0786889e-38
0.53921998 0.011981156 0.69994009 1.0786889e-38
0.54068381 0.010948342 0.70094818 1.0786889e-38
0.53884912 0.013528511 0.70042127 1.0694693e-38
0.53660595 0.015846454 0.69960254 1.0694693e-38
0.53805679 0.015589469 0.70103502 1.0694693e-38
0.60598999 0.016300747 0.70147133 4.7968464e-39
0.53552115 0.01877466 0.70052004 1.0694693e-38
0.60385561 0.019561691 0.70146024 4.7968464e-39
0.53330237 0.021999616 0.70018411 9.7727368e-39
0.53498852 0.021233216 0.70171237 1.0694693e-38
0.53192568 0.025061099 0.7007457 9.3117586e-39
0.52996618 0.028370477 0.70000273 8.9429761e-39
0.53110552 0.027348746 0.70182347 1.0694693e-38
0.5290398 0.031160019 0.70081043 1.0786883e-38
0.52736515 0.034456581 0.70011824 8.9429761e-39
0.52804846 0.033439908 0.700876 8.9429761e-39
0.52638096 0.037234474 0.70059359 1.0879083e-38
0.52463746 0.041016839 0.70041943 8.9429761e-39
0.52539796 0.04000476 0.70106888 1.1524451e-38
0.52625954 0.0433238 0.70075583 1.2814828e-38
0.59098876 0.042101983 0.70164794 2.0559623e-38
0.52949136 0.046186745 0.70063037 1.2446046e-38
0.53147036 0.047233414 0.70134401 1.4013369e-38
0.53285486 0.048807397 0.70077133 1.2907387e-38
0.53477591 0.05038714 0.7007463 1.2538604e-38
0.53611088 0.051968284 0.7002483 1.2538243e-38
0.53844452 0.052782126 0.70094663 1.2077625e-38
0.54095471 0.053607345 0.70142698 1.1524454e-38
0.54163557 0.055729907 0.69971973 9.957128e-39
0.54418266 0.056026787 0.70100045 1.1985432e-38
0.54667735 0.056859475 0.70153224 1.1985432e-38
0.54597628 0.058433145 0.69994396 1.1985432e-38
0.54811668 0.058471117 0.7009387 1.1985432e-38
0.55026108 0.058509164 0.70193523 1.1985432e-38
0.54830444 0.060074262 0.69945586 8.9429761e-39
0.55076033 0.060642641 0.70047617 1.1985432e-38
0.55319482 0.061209798 0.70153302 1.0233715e-38
0.55454206 0.063376404 0.7002477 9.6805411e-39
0.55987751 0.065107301 0.70100486 1.0602497e-38
0.56557667 0.066878073 0.70137274 1.3921539e-38
0.56906879 0.067822382 0.7007938 1.3921539e-38
0.57138264 0.067630418 0.70126462 1.6133874e-38
0.57464606 0.068308957 0.70059276 1.6134234e-38
0.57629138 0.067266084 0.70189714 1.6226431e-38
0.64497823 0.11030865 0.70000958 1.0879806e-38
0.6457895 0.11026173 0.70160091 1.1802122e-38
0.64903742 0.10886857 0.70057821 1.2631524e-38
0.63989025 0.1132646 0.70058674 1.1708845e-38
0.64242852 0.11178992 0.70029885 1.1524454e-38
0.63555723 0.11630222 0.7003814 1.1708845e-38
0.63737762 0.11473487 0.70085776 1.1708845e-38
0.63276619 0.11937973 0.70097756 1.1708845e-38
0.63418907 0.11784762 0.70064688 1.1708845e-38
0.62980998 0.12259658 0.69930196 1.1708845e-38
0.63071358 0.1217272 0.70077211 1.1708845e-38
0.62815768 0.12515312 0.70030898 1.1708845e-38
0.62602729 0.12829791 0.70020658 1.1708845e-38
0.62449646 0.1311954 0.7002666 1.1708845e-38
0.62333912 0.13356884 0.70032346 1.1708845e-38
0.62217045 0.135934 0.70039725 1.1708845e-38
0.62087107 0.14002866 0.69938439 1.1708845e-38
0.62120616 0.13884789 0.70065379 1.1708845e-38
0.62060118 0.14245105 0.69968748 1.1708845e-38
0.62108004 0.14232285 0.70161772 1.1708845e-38
0.62066853 0.14565009 0.7008456 1.1708845e-38
0.62042022 0.14866005 0.70071316 1.1708845e-38
0.62014353 0.15142831 0.70020163 1.1708845e-38
0.62075144 0.15320875 0.6995188 1.1708845e-38
0.62114626 0.15305088 0.70154363 1.1893236e-38
0.62456816 0.15520154 0.70018661 1.1893236e-38
0.62834066 0.15719055 0.70092875 1.1708845e-38
0.45851868 0.20064822 0.69912744 6.7291978e-39
0.46042585 0.20062834 0.7013033 6.5448107e-39
0.46403909 0.20004469 0.69962525 8.9444208e-39
0.46611047 0.20028085 0.70030701 8.7607498e-39
0.45587623 0.20283541 0.70064211 5.1629595e-39
0.45717049 0.20173404 0.69992316 5.3469906e-39
0.4522104 0.20606111 0.7003653 5.5339126e-39
0.45435333 0.20403768 0.70044452 5.6257467e-39
0.45080948 0.20845631 0.70025992 5.2544334e-39
0.44854558 0.21155362 0.70055193 5.5335511e-39
0.44631928 0.21475729 0.70021409 5.8112226e-39
0.44715911 0.21399297 0.70144945 4.9767605e-39
0.44371769 0.21848106 0.70048374 5.3480752e-39
0.44487736 0.216994 0.70078325 5.440631e-39
0.4422105 0.22058621 0.70057213 5.5331895e-39
0.44027114 0.22325678 0.70041561 5.6257481e-39
0.43727264 0.2278204 0.70051646 5.3477123e-39
0.4386189 0.22574222 0.70049423 5.5331881e-39
0.4357948 0.22982574 0.7007578 5.2555166e-39
0.4337844 0.2324158 0.70075428 5.255518e-39
0.4317452 0.23583549 0.70046699 5.5331895e-39
0.43230385 0.23402326 0.69955599 5.9041427e-39
0.43076229 0.23821737 0.70035315 5.2555166e-39
0.61458212 0.23966685 0.69906938 8.3064685e-39
0.61674964 0.23819941 0.70032108 8.6756055e-39
0.62016356 0.23799475 0.70017916 1.2828662e-38
0.62290126 0.23871173 0.70040268 1.245846e-38
0.62579679 0.23899868 0.70005167 1.1070206e-38
0.6277203 0.23865119 0.69914806 9.5897594e-39
0.42969066 0.24166757 0.70060325 4.6065305e-39
0.61082792 0.24240473 0.70068443 8.3064685e-39
0.61266941 0.24061 0.70124161 8.3064685e-39
0.62841004 0.24015419 0.70085198 9.4053738e-39
0.6306867 0.24056096 0.70080179 9.0351717e-39
0.42949396 0.24378148 0.7002809 5.5281224e-39
0.60872424 0.24487962 0.70080465 8.3064685e-39
0.61000097 0.24351513 0.70057857 8.3064685e-39
0.43074337 0.24705149 0.70038366 5.161149e-39
0.60596043 0.24793965 0.69903493 8.3064685e-39
0.60676068 0.24700466 0.7005865 8.3064685e-39
0.4315477 0.24900562 0.70078897 4.3281359e-39
0.43246135 0.25134119 0.70058739 4.6987233e-39
0.60219896 0.25179678 0.7009055 8.3064685e-39
0.60393792 0.25001857 0.70054251 8.3064685e-39
0.43490154 0.2539973 0.70048773 4.883116e-39
0.59949148 0.25462824 0.70033962 8.3064685e-39
0.60078222 0.25329846 0.7000767 8.3064685e-39
0.43732643 0.25594854 0.70043004 4.8834775e-39
0.43972176 0.25788593 0.70043886 5.5295686e-39
0.59679389 0.25744939 0.69977731 8.3064685e-39
0.59763092 0.25653237 0.70127124 8.3064685e-39
0.59494019 0.25934348 0.70071089 8.3064685e-39
0.6215837 0.26047015 0.70022452 6.6394993e-39
0.44878459 0.26138186 0.70017743 4.790556e-39
0.59254634 0.26184258 0.70063758 8.3064685e-39
0.58778822 0.26681355 0.70049059 8.3064685e-39
0.58945966 0.26507124 0.70015877 8.3064685e-39
0.58612329 0.2685498 0.70081967 8.3064685e-39
0.58307511 0.27174982 0.70033377 8.3064685e-39
0.58060026 0.27433053 0.70082635 8.3064685e-39
0.57758081 0.27750355 0.70033991 8.3064685e-39
0.5744862 0.28080624 0.70037436 8.3064685e-39
0.57223439 0.28325334 0.70022506 8.3064685e-39
0.56859237 0.28721723 0.70137787 8.3064685e-39
0.5702697 0.28539053 0.70056057 8.3064685e-39
0.56621838 0.28982979 0.70016843 8.3064685e-39
0.56776381 0.28812647 0.69991821 8.3064685e-39
0.56315732 0.29323006 0.70064753 8.3064685e-39
0.56429243 0.2919524 0.70048058 8.3064685e-39
0.56014335 0.29696745 0.70191294 8.7660033e-39
0.56173712 0.29497394 0.70075697 8.398304e-39
0.55767071 0.29992861 0.70004201 8.6741678e-39
0.55934787 0.29788837 0.70042634 8.5819736e-39
0.55626231 0.30165598 0.70015317 9.1333411e-39
0.55411398 0.30421692 0.70037347 1.005133e-38
0.55089319 0.30819607 0.7011345 1.0232124e-38
0.55232328 0.30634001 0.70056468 1.060198e-38
0.54846734 0.3113445 0.70173275 7.8375912e-39
0.54973543 0.30969903 0.70012039 1.0877844e-38
0.54735768 0.31364223 0.70066416 8.6716651e-39
0.54548419 0.32016528 0.70057422 8.7656432e-39
0.54423493 0.32624972 0.69968957 8.4894206e-39
0.54391509 0.32838723 0.70010066 3.5884003e-39
0.55023718 -0.33107522 0.70320237 2.8599577e-39
0.5505513 -0.32860628 0.70404226 2.8599577e-39
0.55079836 -0.32566383 0.70373046 2.8599577e-39
0.55094993 -0.32265723 0.70353913 2.8599577e-39
0.5510636 -0.31962466 0.70339566 2.8599577e-39
0.55117726 -0.31659079 0.7032522 2.8599577e-39
0.55156076 -0.31372416 0.70276821 2.8599577e-39
0.55200756 -0.31256557 0.70467585 2.8599577e-39
0.55238229 -0.31094652 0.70338053 2.8599577e-39
0.55323106 -0.30788141 0.70313722 2.8599577e-39
0.55406749 -0.30495521 0.7033214 2.8599577e-39
0.55472916 -0.30269867 0.70372766 2.8599577e-39
0.5552572 -0.30067784 0.70306605 2.8599577e-39
0.55584693 -0.29878888 0.70397377 2.8599577e-39
0.55675983 -0.29547942 0.70365715 2.9517932e-39
0.55768782 -0.29217169 0.70332164 8.9433657e-39
0.55847448 -0.28961244 0.70398873 1.1524455e-38
0.55952144 -0.28583923 0.70350933 1.1708845e-38
0.56020427 -0.28341612 0.70348436 1.1708845e-38
0.56079924 -0.28094065 0.70356995 1.1708845e-38
0.56106007 -0.27951908 0.70324665 1.1708845e-38
0.5615204 -0.27696592 0.70349884 1.1708845e-38
0.56195676 -0.27423352 0.70336992 1.1708845e-38
0.56254542 -0.27112773 0.70387697 1.1708845e-38
0.56296033 -0.26821238 0.70336473 1.1708845e-38
0.56351763 -0.26491895 0.7034989 1.1708845e-38
0.56376106 -0.26235244 0.70237589 1.1708845e-38
0.5641371 -0.26199311 0.70438027 1.1708845e-38
0.56438446 -0.25942627 0.70325309 1.1708845e-38
0.56494516 -0.25612572 0.70338607 1.1708845e-38
0.56545585 -0.25279829 0.70357972 1.1708845e-38
0.56582677 -0.25001144 0.70353508 1.1708845e-38
0.56619769 -0.24722302 0.70349091 1.1708845e-38
0.5666818 -0.24387582 0.70371991 1.1708845e-38
0.56693941 -0.24163912 0.70340413 1.1708845e-38
0.56711125 -0.24014677 0.70319349 1.1708845e-38
0.56736934 -0.23790638 0.70287704 1.1708845e-38
0.56779277 -0.23549032 0.70359111 1.1708845e-38
0.56813735 -0.23294228 0.70358086 1.1708845e-38
0.56856596 -0.23008642 0.70387948 1.1708845e-38
0.56891215 -0.22709101 0.70345664 1.1708845e-38
0.56943488 -0.22374851 0.70363975 1.0787259e-38
0.56977695 -0.22126971 0.70322227 7.192027e-39
0.57006419 -0.2200305 0.70451605 3.5049614e-39
0.57026523 -0.2181704 0.70344925 3.3205715e-39
0.57079315 -0.21482238 0.7036289 2.8599577e-39
0.57121062 -0.21184024 0.70312089 2.9517932e-39
0.57174212 -0.20867753 0.70370644 2.8599577e-39
0.5721634 -0.20588 0.70360583 2.8599577e-39
0.57269263 -0.20252332 0.70378578 2.8599577e-39
0.57290548 -0.20023648 0.70352775 2.8599577e-39
0.5730111 -0.19869652 0.70339966 2.8599577e-39
0.57316971 -0.19638543 0.70320737 2.8599577e-39
0.57373208 -0.19322932 0.70375776 2.8599577e-39
0.57420766 -0.19024469 0.7031821 2.8599577e-39
0.57492775 -0.18714406 0.70354456 2.8599577e-39
0.57553393 -0.18432985 0.70363331 2.8599577e-39
0.57603461 -0.183193 0.7046715 2.8599577e-39
0.57576334 -0.18190256 0.70253509 2.8599577e-39
0.57626694 -0.18076594 0.70357037 2.8599577e-39
0.57688606 -0.17795005 0.70364666 2.8599577e-39
0.57773381 -0.17488369 0.70385796 2.8599577e-39
0.57822251 -0.17187637 0.70327079 2.8599577e-39
0.57858956 -0.16961759 0.70282984 2.8599577e-39
0.57919508 -0.16804874 0.70333576 2.8599577e-39
0.58048916 -0.16732308 0.70424843 2.8599577e-39
0.58320016 -0.16547412 0.70347589 2.8599577e-39
0.58633661 -0.16356884 0.70344579 2.8599577e-39
0.58999914 -0.067099586 0.70281339 1.1156391e-38
0.59212464 -0.068064064 0.70277804 1.8530597e-38
0.5942291 -0.067414701 0.70277607 1.9084132e-38
0.58656168 -0.064126559 0.70358896 1.0048961e-38
0.58943939 -0.065325871 0.70470268 1.3275083e-38
0.59295648 -0.065610707 0.70426399 1.7146937e-38
0.5950793 -0.064961821 0.70424366 1.7515721e-38
0.59722728 -0.064311415 0.70420301 1.8068897e-38
0.58080781 -0.060059153 0.70263577 1.2354214e-38
0.58333236 -0.0611999 0.70413905 1.1063476e-38
0.59872943 -0.062756553 0.70491791 1.6869271e-38
0.58032233 -0.058396719 0.70321703 1.26308e-38
0.58206594 -0.058413155 0.7048263 1.1432258e-38
0.57822961 -0.055629686 0.70285171 1.2446043e-38
0.57994151 -0.056196526 0.70408303 1.4105568e-38
0.61351347 -0.054110482 0.70274776 1.4751301e-38
0.57565737 -0.05177182 0.70266306 1.1893232e-38
0.57742435 -0.052786183 0.70349199 1.4566908e-38
0.58078778 -0.052501261 0.70471215 1.8530596e-38
0.61476552 -0.052490644 0.70379156 1.4751301e-38
0.61893642 -0.05197778 0.70278871 1.5212279e-38
0.57453841 -0.049318582 0.70278269 1.3552758e-38
0.57777154 -0.049454492 0.70381379 1.8623512e-38
0.58037353 -0.049578369 0.70438671 1.8346196e-38
0.58209878 -0.049659371 0.70478725 1.8438397e-38
0.61601824 -0.050870061 0.70483583 1.4751301e-38
0.62091917 -0.049547642 0.70425612 1.6317905e-38
0.62520164 -0.049027838 0.70317686 1.8346569e-38
0.62952071 -0.048503838 0.70208806 1.9176331e-38
0.57186675 -0.045229338 0.70232242 1.1801041e-38
0.5740999 -0.046095349 0.70331401 1.7240581e-38
0.57772458 -0.046273109 0.7038703 1.9083765e-38
0.58048511 -0.046410698 0.70425332 1.8622783e-38
0.58286613 -0.046257626 0.70469403 1.871535e-38
0.62541074 -0.046510555 0.70417267 1.9452556e-38
0.62859732 -0.046741478 0.7031067 1.8807907e-38
0.63061482 -0.045182012 0.7033422 2.0098286e-38
0.57224524 -0.042837545 0.70309669 1.5304473e-38
0.57424599 -0.043187801 0.70354801 1.9175965e-38
0.5776068 -0.043083988 0.70401192 1.9084127e-38
0.58037627 -0.043216273 0.70438331 1.9268524e-38
0.58313906 -0.04334696 0.70477939 1.8254733e-38
0.58606899 -0.043496072 0.70499074 1.5027888e-38
0.62482303 -0.044795319 0.70482343 1.6871077e-38
0.62842643 -0.044176754 0.70452356 1.8346567e-38
0.56964648 -0.040355351 0.70255983 1.1432258e-38
0.57129729 -0.041209683 0.70301616 1.7332777e-38
0.57475948 -0.040566035 0.70374775 1.9084128e-38
0.57744569 -0.0398915 0.70420539 1.8715342e-38
0.58070582 -0.040296856 0.70481014 1.8439125e-38
0.58607638 -0.041100688 0.70498204 1.4935692e-38
0.63242078 -0.041934304 0.70381641 1.9821697e-38
0.56874698 -0.037666209 0.70283645 1.392154e-38
0.57192594 -0.03805919 0.70348495 1.9176327e-38
0.57463282 -0.038176589 0.70390081 1.8807178e-38
0.57715225 -0.037479915 0.7045579 1.8438755e-38
0.63423061 -0.038679469 0.7042917 1.9268522e-38
0.56593919 -0.033883143 0.7021631 1.1616649e-38
0.56818807 -0.034735881 0.70310926 1.7056192e-38
0.5716604 -0.034871168 0.70380735 1.8623513e-38
0.57477349 -0.034723084 0.70455194 1.8715713e-38
0.5760684 -0.03583781 0.70463085 1.871535e-38
0.56543046 -0.031079356 0.70278978 1.3276552e-38
0.56812811 -0.03182314 0.70359349 1.8715711e-38
0.57122564 -0.031669721 0.70433551 1.8715713e-38
0.57390785 -0.032563139 0.70477676 1.8715713e-38
0.56298488 -0.02797245 0.70251137 8.3913157e-39
0.56577569 -0.028309699 0.70359921 1.7885954e-38
0.56876212 -0.028139999 0.70446175 1.8715713e-38
0.57089996 -0.029271757 0.70473111 1.8715713e-38
0.62502271 -0.02831912 0.70460236 1.6778516e-38
0.62881291 -0.028538596 0.70286888 1.6225345e-38
0.56005269 -0.024211951 0.70202565 3.5057068e-39
0.56228697 -0.025049692 0.70296288 5.6265833e-39
0.5654195 -0.025134854 0.70403665 1.0972793e-38
0.5677985 -0.025200868 0.70481682 1.5950234e-38
0.62283099 -0.024937104 0.70458102 1.6870353e-38
0.62642407 -0.02595369 0.70305073 1.7331691e-38
0.55908585 -0.021552419 0.70240492 4.0592618e-39
0.56193399 -0.021884728 0.70339966 4.4280541e-39
0.56505263 -0.021963231 0.7044872 4.3358571e-39
0.62375933 -0.023359358 0.70354939 1.650121e-38
0.62473673 -0.021780107 0.70246333 1.7608639e-38
0.55777508 -0.01942011 0.70238984 4.4280541e-39
0.56010967 -0.019476129 0.7031914 4.4280541e-39
0.56317353 -0.019546624 0.70433521 4.2436572e-39
0.62217331 -0.019203421 0.70285743 1.7608279e-38
0.55673957 -0.017039482 0.7024473 4.1510987e-39
0.55973929 -0.017102066 0.70365119 4.2436586e-39
0.56194186 -0.01714527 0.70462239 4.2436572e-39
0.55389255 -0.013054077 0.70230538 3.7823035e-39
0.55616909 -0.013878599 0.70316076 4.2436572e-39
0.55908674 -0.013930839 0.70446134 4.2436572e-39
0.61852205 -0.0141082 0.70448089 1.7239497e-38
0.55416149 -0.010701444 0.70320445 3.9670619e-39
0.55678445 -0.011002332 0.70444965 4.2436572e-39
0.61958432 -0.01170595 0.70329189 1.6963648e-38
0.5518496 -0.0075474046 0.70240355 3.7823035e-39
0.55365741 -0.007559346 0.70383728 3.7823035e-39
0.55575544 -0.0083655398 0.70491117 4.2436572e-39
0.61667764 -0.0066882242 0.70409501 7.3779443e-39
0.55093259 -0.0041504991 0.70273691 3.7823035e-39
0.55301815 -0.0046842364 0.7042284 3.7823035e-39
0.55061281 -0.0011271409 0.70347059 3.6901065e-39
0.55221909 -0.0020733792 0.7044099 3.7823035e-39
0.54813498 0.0021150596 0.7029807 5.4410738e-39
0.54980451 0.0015886003 0.70416206 4.2432677e-39
0.61282676 0.0015636478 0.70352471 4.981602e-39
0.54562485 0.0057644174 0.70287526 1.1340064e-38
0.54724973 0.0048247855 0.70377535 1.1063481e-38
0.60986364 0.0040722722 0.70442796 5.0738019e-39
0.54472476 0.0082560284 0.70352924 1.1432258e-38
0.54634684 0.0073198332 0.70442873 1.1432258e-38
0.60740077 0.0081778709 0.70477641 5.1660003e-39
0.54231209 0.01146483 0.70298737 1.0786889e-38
0.54380971 0.010431331 0.70395648 1.1063476e-38
0.54142708 0.013529263 0.70329887 1.0694693e-38
0.53927493 0.016104311 0.7027685 1.0694693e-38
0.54153603 0.015844215 0.70439655 1.6687408e-38
0.53647739 0.019697731 0.70225799 1.0694693e-38
0.5383811 0.018928196 0.70351046 1.4659104e-38
0.54151207 0.018922316 0.70442754 1.8807908e-38
0.54400647 0.018916948 0.70494044 1.8715713e-38
0.5354495 0.022255236 0.70276767 1.3368366e-38
0.53826433 0.022000004 0.70366192 1.8807908e-38
0.54157794 0.022000004 0.70434302 1.8623517e-38
0.54407281 0.022000004 0.70485586 1.7424974e-38
0.53258592 0.025823768 0.70236731 1.0694693e-38
0.53503084 0.025064224 0.70289958 1.8807908e-38
0.53832966 0.025071325 0.7035774 1.8623517e-38
0.54164386 0.025078461 0.70425844 1.6687409e-38
0.54413915 0.025083832 0.70477116 1.456691e-38
0.59664512 0.026029188 0.70487869 1.3091466e-38
0.53088254 0.028873993 0.70211643 1.9084131e-38
0.53259993 0.028118184 0.70234895 1.8992298e-38
0.53509563 0.028129205 0.70281518 1.8623517e-38
0.53839505 0.028143413 0.703493 1.68718e-38
0.54170978 0.028157689 0.70417392 1.4474714e-38
0.54420543 0.028168436 0.70468652 1.4382518e-38
0.59482241 0.029243508 0.70454299 1.6686329e-38
0.53059995 0.031160183 0.70248783 1.6963633e-38
0.53272849 0.031428304 0.70300883 1.9084494e-38
0.53509068 0.030935377 0.70323485 1.8715713e-38
0.53819144 0.03121132 0.70375621 1.5488866e-38
0.54162681 0.031234877 0.70428032 1.456691e-38
0.54476041 0.030998776 0.70480281 1.4474714e-38
0.59300411 0.032449819 0.70420831 1.7331695e-38
0.5295825 0.034201834 0.70258403 1.6871436e-38
0.53254497 0.034222625 0.70366228 1.89923e-38
0.53595996 0.034253955 0.70417017 1.6963996e-38
0.53853202 0.034277558 0.70455265 1.4659105e-38
0.5408712 0.034043193 0.70483828 1.4659105e-38
0.59119046 0.035648152 0.70387429 1.7977425e-38
0.59409207 0.034080185 0.70293623 1.98217e-38
0.52712983 0.037987202 0.70209193 1.687107e-38
0.52924377 0.037242293 0.70302999 1.6871436e-38
0.53208143 0.037264682 0.7042681 1.7885952e-38
0.53520381 0.037045173 0.70473903 1.68718e-38
0.54203039 0.038157657 0.70499772 1.539667e-38
0.54408473 0.03818842 0.7048406 1.4843496e-38
0.58905381 0.038828935 0.7039268 1.7977783e-38
0.59227353 0.037282493 0.70260334 1.9913895e-38
0.52687746 0.040261965 0.70242602 1.677887e-38
0.52929485 0.040433969 0.7037077 1.6871796e-38
0.53176278 0.039543752 0.70468438 1.7885952e-38
0.53822118 0.041172601 0.70495373 1.5488866e-38
0.54124331 0.040456776 0.70477283 1.5212279e-38
0.54470259 0.040767726 0.70487636 1.4843496e-38
0.58677024 0.041992806 0.70416194 1.7700838e-38
0.59019804 0.040468432 0.70257914 1.9637308e-38
0.5269649 0.042548362 0.7023102 1.5857288e-38
0.52958024 0.043188225 0.70333219 1.5488506e-38
0.53216481 0.044137601 0.70415878 1.5857648e-38
0.53575712 0.043684155 0.70484567 1.5488866e-38
0.53849673 0.043484755 0.70459831 1.539667e-38
0.54144001 0.043540873 0.70452017 1.4935692e-38
0.54502767 0.04360158 0.7048738 1.4843496e-38
0.58301526 0.043511942 0.70492661 1.9729502e-38
0.58790767 0.043635182 0.70281756 1.9452916e-38
0.5307315 0.045670204 0.70231497 1.4105931e-38
0.53296399 0.0464659 0.70311433 1.4935692e-38
0.53585863 0.046503797 0.70430171 1.5581061e-38
0.53879952 0.046568096 0.7042076 1.5120083e-38
0.54148346 0.046620138 0.7044645 1.4843496e-38
0.5450691 0.046689451 0.70482099 1.4935692e-38
0.57790804 0.046594415 0.7048794 1.9913886e-38
0.5800426 0.045845598 0.70478201 2.0098283e-38
0.5830093 0.045643583 0.70452422 1.9176688e-38
0.58539796 0.046778832 0.70332623 1.9452915e-38
0.58842075 0.045258604 0.70221096 2.0467428e-38
0.53566617 0.049347375 0.70248604 1.3644952e-38
0.53825021 0.049638126 0.70368004 1.3644953e-38
0.54160738 0.049704328 0.70430547 1.4659105e-38
0.54484338 0.04951572 0.70469683 1.4843496e-38
0.54703832 0.050596468 0.70478576 1.4290323e-38
0.57785964 0.048178904 0.7049374 2.0282307e-38
0.58011246 0.049028095 0.70469868 2.0281941e-38
0.58268386 0.049099486 0.7040906 1.9361079e-38
0.58610022 0.049210571 0.70249319 2.0467067e-38
0.541695 0.05243348 0.70295537 1.1524454e-38
0.54448605 0.053136468 0.70350438 1.2538606e-38
0.54740912 0.05293683 0.70431519 1.4659105e-38
0.55067158 0.05327246 0.7047143 1.4290323e-38
0.57988381 0.051401168 0.70497179 2.0467058e-38
0.58355665 0.052334279 0.70305145 2.0283039e-38
0.54595411 0.055264853 0.70245516 1.1985432e-38
0.54808527 0.055826951 0.70304388 1.1801041e-38
0.55029231 0.056394558 0.70354587 1.2169823e-38
0.55214238 0.056163847 0.7045064 1.3460562e-38
0.58425546 0.054768972 0.70221937 2.0651821e-38
0.55162275 0.058529768 0.70268989 1.0233715e-38
0.55340505 0.058542851 0.70415413 1.1616649e-38
0.58171999 0.057874415 0.70277768 2.065182e-38
0.58218366 0.059499495 0.70222354 2.0744017e-38
0.55400074 0.060140032 0.7034061 1.0233715e-38
0.55636275 0.061363872 0.70415342 1.1524454e-38
0.55656147 0.063368052 0.70266962 1.0510302e-38
0.55951405 0.063938916 0.70434237 1.2630801e-38
0.56252789 0.065105632 0.70389861 1.6134235e-38
0.56553912 0.065216161 0.7038902 1.6226431e-38
0.56856394 0.06532719 0.70388198 1.6226431e-38
0.57160616 0.065438852 0.70387363 1.6134235e-38
0.57466233 0.065551028 0.70386523 1.6134234e-38
0.57670909 0.065626159 0.70385963 1.604204e-38
0.65807271 0.10141432 0.70240426 1.1616289e-38
0.64724886 0.11022553 0.70372349 1.1617731e-38
0.64966476 0.1103226 0.70482582 1.7240583e-38
0.65192032 0.11047663 0.70488155 1.7240583e-38
0.6550234 0.11074763 0.70405054 1.6410822e-38
0.64036095 0.11308382 0.70376652 1.1708845e-38
0.64308822 0.11163917 0.70327872 1.1801042e-38
0.63735771 0.11539584 0.70334059 1.1708845e-38
0.63390362 0.11845903 0.70342219 1.1708845e-38
0.6312753 0.12129768 0.70343518 1.1708845e-38
0.62905097 0.12443459 0.70342523 1.1708845e-38
0.62619138 0.12861636 0.7033084 1.1708845e-38
0.62726712 0.12705135 0.70334613 1.1708845e-38
0.62492329 0.13072805 0.70307541 1.1708845e-38
0.62339705 0.1340941 0.70395201 1.1708845e-38
0.62252289 0.13599375 0.70328635 1.1708845e-38
0.62160999 0.13891184 0.70348573 1.1708845e-38
0.6213026 0.14214426 0.70382851 1.1708845e-38
0.62099695 0.14619625 0.70416933 1.1708845e-38
0.62109292 0.14457068 0.7040624 1.1708845e-38
0.62082505 0.14898054 0.70354193 1.1708845e-38
0.62062418 0.151291 0.70212799 1.1708845e-38
0.62220818 0.15209344 0.70404708 1.4105931e-38
0.62276006 0.15575814 0.70440799 1.2061423e-38
0.62482679 0.15488932 0.70359141 1.2907388e-38
0.62725377 0.15670264 0.70458883 1.1708845e-38
0.63287991 0.157442 0.70331353 1.5212279e-38
0.46313459 0.20092912 0.70226312 7.4689334e-39
0.45529902 0.2038254 0.70280206 4.2337683e-39
0.45739412 0.20265841 0.70339286 4.140851e-39
0.46035394 0.20163959 0.70394701 4.9688026e-39
0.46412849 0.20176153 0.70413494 6.0776823e-39
0.46656612 0.20131916 0.70342064 7.0057875e-39
0.46887195 0.20164901 0.70375949 6.7273901e-39
0.45250899 0.20611702 0.7032972 4.4167134e-39
0.45394248 0.20524421 0.70362139 4.3263254e-39
0.47472075 0.20622042 0.70391548 7.8326559e-39
0.45124945 0.20838571 0.70372403 4.1412125e-39
0.44922009 0.21149831 0.7033211 3.9575457e-39
0.44658375 0.2151524 0.70235282 4.0501029e-39
0.44767091 0.21412046 0.70404392 3.864627e-39
0.44537243 0.21750452 0.70383078 3.864627e-39
0.44326279 0.22065037 0.70375884 3.8649858e-39
0.44054851 0.2241891 0.70338488 4.0497385e-39
0.44177207 0.22290832 0.70399308 3.9568213e-39
0.43885413 0.22648826 0.70336175 3.9571814e-39
0.4369368 0.22929181 0.70361823 3.9568227e-39
0.63968444 0.22820902 0.70307362 8.7638761e-39
0.43411016 0.23318487 0.7034772 3.8649858e-39
0.43543997 0.23151021 0.70389158 3.8646256e-39
0.43185723 0.23610288 0.70285517 3.8653473e-39
0.43262729 0.23524225 0.70331401 3.9579045e-39
0.4310621 0.23860222 0.70350599 3.8649872e-39
0.61426806 0.23894522 0.70312357 8.3064685e-39
0.43076554 0.24168572 0.70309114 3.77243e-39
0.61171508 0.24169081 0.70355451 8.3064685e-39
0.61297321 0.24031343 0.70335901 8.3064685e-39
0.43092215 0.24492285 0.70309269 3.77243e-39
0.60845351 0.24517497 0.70357651 8.3064685e-39
0.60993624 0.24368469 0.70434558 8.3064685e-39
0.43137595 0.24769795 0.70363694 3.77243e-39
0.6052295 0.24864992 0.70357382 8.3064685e-39
0.60701001 0.24667755 0.70276558 8.3064685e-39
0.4323926 0.25046244 0.70369434 3.77243e-39
0.60245186 0.25146317 0.70307785 8.3064685e-39
0.60391963 0.24998184 0.7038483 8.3064685e-39
0.43552709 0.25355268 0.70332521 3.8649872e-39
0.5998866 0.25412709 0.70357966 8.3064685e-39
0.60116756 0.25279692 0.70332831 8.3064685e-39
0.61067224 0.25489134 0.70297897 8.3064685e-39
0.43944794 0.25650096 0.70343721 3.9571828e-39
0.59818381 0.25589538 0.70391226 8.3064685e-39
0.59338874 0.26089752 0.7037586 8.3064685e-39
0.59507769 0.25914374 0.70342588 8.3064685e-39
0.59072542 0.26368764 0.70318937 8.3064685e-39
0.59198475 0.26237822 0.70294219 8.3064685e-39
0.60325253 0.26205662 0.70291585 8.7660243e-39
0.58863813 0.26586404 0.70359635 8.3064685e-39
0.5862788 0.26833451 0.7035135 8.3064685e-39
0.58345032 0.27128935 0.70379388 8.3064685e-39
0.58053643 0.27434751 0.70337218 8.3064685e-39
0.57763493 0.2774033 0.70356655 8.3064685e-39
0.57497799 0.28028443 0.70348334 8.3064685e-39
0.57155222 0.28400853 0.70352715 8.3064685e-39
0.57312292 0.28229994 0.70326406 8.3064685e-39
0.56920481 0.28656194 0.70392102 8.3064685e-39
0.56592667 0.29012933 0.70341241 8.4901381e-39
0.56708884 0.28885919 0.70322096 8.3064685e-39
0.56368327 0.29269662 0.70370567 8.7656432e-39
0.56476665 0.29139596 0.70360571 8.6738091e-39
0.56049532 0.29660708 0.70394659 1.0235719e-38
0.56191033 0.29487172 0.7038393 9.3170107e-39
0.55855531 0.29895076 0.70306492 1.0143166e-38
0.55641645 0.30152303 0.70326263 1.014029e-38
0.55386764 0.30447707 0.70357335 7.2822707e-39
0.55144531 0.30747873 0.70373774 4.3327896e-39
0.5487783 0.31094038 0.70381361 4.0594285e-39
0.54977679 0.30964437 0.7037847 4.7030113e-39
0.54594976 0.31461143 0.70493364 8.3064685e-39
0.54744965 0.3126649 0.70385075 7.2901782e-39
0.54480219 0.31610116 0.70392507 8.398304e-39
0.5429461 0.32336324 0.70382488 3.7731503e-39
0.54363108 0.32143804 0.70294762 8.4894206e-39
0.54345578 0.32596889 0.70317209 3.5884003e-39
0.54407686 0.32910952 0.70361388 3.5884003e-39
0.55323637 -0.33406374 0.70682728 1.5684636e-39
0.55138254 -0.33158666 0.70628232 2.2138498e-39
0.55080849 -0.3280834 0.70618373 2.8599577e-39
0.55105519 -0.3251451 0.70587349 2.8599577e-39
0.55136847 -0.32268193 0.70670921 2.8599577e-39
0.5516569 -0.31939045 0.70659328 2.8599577e-39
0.55176514 -0.3163304 0.70580131 2.8599577e-39
0.55211401 -0.31507325 0.70700443 2.8603164e-39
0.55173779 -0.31394923 0.70501512 2.8599577e-39
0.55224556 -0.31283057 0.70683956 2.8599577e-39
0.55280232 -0.31007385 0.70614195 2.8599577e-39
0.55364525 -0.30716252 0.70631605 2.8599577e-39
0.55448103 -0.30424243 0.70650208 2.8599577e-39
0.55534142 -0.30133355 0.70665729 2.8603164e-39
0.55620277 -0.2984207 0.70681435 2.8603164e-39
0.55706811 -0.29535064 0.70655721 2.9521519e-39
0.55758876 -0.2934747 0.70631993 3.1365418e-39
0.5581035 -0.29190725 0.70691079 5.8098269e-39
0.5586288 -0.28987154 0.70625985 1.1248231e-38
0.55949473 -0.28694284 0.70641571 1.1524815e-38
0.56034648 -0.28400156 0.70659232 1.1525174e-38
0.56078464 -0.28190392 0.70605123 1.1617009e-38
0.561243 -0.27987745 0.70630401 1.1524815e-38
0.56169981 -0.27784953 0.70655984 1.143298e-38
0.56226724 -0.27509922 0.70668077 1.1433339e-38
0.56278801 -0.27146876 0.70604008 1.1617009e-38
0.56337488 -0.26836652 0.70654607 1.1524815e-38
0.56377798 -0.26587623 0.70646065 1.1525174e-38
0.56427348 -0.26307786 0.70667213 1.1525174e-38
0.56468934 -0.26015857 0.70616233 1.1617009e-38
0.56527519 -0.25663325 0.70642626 1.1524815e-38
0.56570369 -0.25377837 0.70655674 1.1525174e-38
0.56613797 -0.25094157 0.70684505 1.1525174e-38
0.56648386 -0.24797364 0.70642257 1.1617009e-38
0.56683022 -0.24500199 0.70599955 1.1708845e-38
0.56723142 -0.2438945 0.70796329 1.143298e-38
0.56733418 -0.241846 0.70661151 1.1525174e-38
0.56768119 -0.23886877 0.70618838 1.1617009e-38
0.56818563 -0.23571108 0.70680207 1.1617009e-38
0.56853342 -0.2327283 0.70637882 1.1708845e-38
0.56901437 -0.22937797 0.70661134 1.1617009e-38
0.56938547 -0.22658063 0.70656919 1.1617009e-38
0.56975794 -0.2237823 0.7065261 9.5887281e-39
0.57026899 -0.2204389 0.70672458 3.5971556e-39
0.57065415 -0.21745634 0.70625758 2.8599577e-39
0.57119071 -0.21430561 0.70683348 2.8599577e-39
0.57158279 -0.21131921 0.70635885 2.8599577e-39
0.57211399 -0.20816359 0.70694387 2.8599577e-39
0.57250416 -0.20516963 0.70647252 2.8599577e-39
0.57281327 -0.20292807 0.70609909 2.8599577e-39
0.57315379 -0.20127082 0.70691371 2.8599577e-39
0.57343912 -0.19901678 0.70656961 2.8599577e-39
0.5737682 -0.19598775 0.70617294 2.8599577e-39
0.57446223 -0.19288814 0.70656419 2.8599577e-39
0.55188519 -0.18953721 0.706384 3.8737383e-39
0.57530326 -0.18984243 0.70677847 2.8599577e-39
0.57542813 -0.18692797 0.70540154 2.8599577e-39
0.57614726 -0.1867941 0.7069912 2.8599577e-39
0.57663262 -0.18380845 0.70640898 2.8599577e-39
0.57735664 -0.18150014 0.70676678 2.8599577e-39
0.57784367 -0.17850631 0.70618361 2.8599577e-39
0.57856911 -0.17619422 0.70654285 2.8599577e-39
0.5794096 -0.17531762 0.7079891 2.8599577e-39
0.57893562 -0.1739434 0.70610487 2.8599577e-39
0.57957768 -0.17285824 0.70697236 2.8599577e-39
0.57990688 -0.17012325 0.70617139 2.8599577e-39
0.58117676 -0.16719051 0.70588505 2.8599577e-39
0.58359712 -0.16565755 0.70628053 2.8599577e-39
0.5863682 -0.16402489 0.70586407 2.8599577e-39
0.58849674 -0.16276319 0.70580977 2.8599577e-39
0.59060013 -0.16148642 0.70579374 2.8599577e-39
0.58722746 -0.063474774 0.70607769 9.8649324e-39
0.58903849 -0.063582413 0.70639944 1.6501206e-38
0.59171712 -0.063818753 0.70571303 1.6501206e-38
0.5843302 -0.060097214 0.70582092 1.4843131e-38
0.58621281 -0.061249431 0.70645672 1.6134234e-38
0.58938015 -0.061153457 0.70722389 1.8162176e-38
0.59256136 -0.061377492 0.70717692 1.7423889e-38
0.59528053 -0.061611857 0.70646256 1.5947675e-38
0.59742534 -0.060956411 0.70642602 1.5948033e-38
0.60023373 -0.061199561 0.70563382 1.5579975e-38
0.58334237 -0.058440194 0.70576477 1.8530596e-38
0.58626026 -0.058064263 0.70640117 1.8531319e-38
0.5894686 -0.057967436 0.70712024 1.8531322e-38
0.5920915 -0.058104575 0.70772427 1.68718e-38
0.59558016 -0.058067847 0.70774698 1.6133874e-38
0.5988757 -0.058588896 0.70719868 1.5396309e-38
0.60146284 -0.058794271 0.70666909 1.5120083e-38
0.60355532 -0.058120877 0.70671755 1.5120083e-38
0.58174706 -0.055980701 0.70520604 1.8623154e-38
0.58347476 -0.056068998 0.70560777 1.8438399e-38
0.58580023 -0.055923004 0.70612687 1.8438396e-38
0.58992493 -0.05507192 0.70699376 1.7148387e-38
0.59253728 -0.05495951 0.70720506 1.5581061e-38
0.59557033 -0.055437285 0.70694321 1.5212279e-38
0.5988667 -0.055143874 0.70639437 1.5120083e-38
0.60178816 -0.05560502 0.70629549 1.5027888e-38
0.60489571 -0.055796929 0.70641005 1.5027888e-38
0.60823178 -0.055205092 0.70628136 1.5581061e-38
0.5818789 -0.053611189 0.70504904 1.8346196e-38
0.5836513 -0.052905764 0.70539832 1.8438397e-38
0.58625299 -0.053033408 0.70600128 1.8439123e-38
0.58955693 -0.052937757 0.70660895 1.6963996e-38
0.59351277 -0.051877428 0.70606863 1.5212279e-38
0.59575903 -0.052024338 0.70590711 1.5027888e-38
0.59889829 -0.052214369 0.70594966 1.4935692e-38
0.60189939 -0.052385703 0.70616788 1.4935692e-38
0.60487247 -0.052552462 0.70643663 1.4935692e-38
0.60815114 -0.052756913 0.70637286 1.5581061e-38
0.61051244 -0.052100278 0.70614356 1.5581061e-38
0.58382797 -0.04974056 0.70518875 1.8438759e-38
0.58643156 -0.049862958 0.70579052 1.7885951e-38
0.58934581 -0.050023414 0.70603883 1.604204e-38
0.59242296 -0.049958546 0.7057066 1.5212279e-38
0.59591877 -0.048825555 0.70572174 1.4935692e-38
0.59890836 -0.048988871 0.7059381 1.4935692e-38
0.60188395 -0.049149688 0.70618546 1.4935692e-38
0.60484958 -0.049308278 0.7064628 1.4935692e-38
0.60801083 -0.049489744 0.70653224 1.539667e-38
0.61031699 -0.049634088 0.70636475 1.539667e-38
0.61341095 -0.049555678 0.70613575 1.5673257e-38
0.61733097 -0.049255781 0.70581406 1.5212278e-38
0.58396053 -0.047365427 0.70503151 1.8438763e-38
0.5864585 -0.046960559 0.70534992 1.6963996e-38
0.58933216 -0.046597969 0.70523804 1.4935692e-38
0.59294933 -0.047057681 0.70550072 1.4935692e-38
0.59592634 -0.046411946 0.70571297 1.4935692e-38
0.59923387 -0.046047315 0.70597076 1.4935692e-38
0.60186118 -0.045912981 0.70621169 1.4935692e-38
0.60484755 -0.046066742 0.70646513 1.4935692e-38
0.6079998 -0.046238814 0.70654476 1.5212279e-38
0.61015415 -0.046359062 0.70654899 1.5212279e-38
0.613401 -0.046540283 0.70655513 1.6779605e-38
0.61666024 -0.046722036 0.70656478 1.9360718e-38
0.61907041 -0.046869896 0.7063179 1.7239858e-38
0.6223008 -0.047110319 0.70517015 1.8161454e-38
0.58901346 -0.043645963 0.70520371 1.4935692e-38
0.59295934 -0.043846842 0.70548898 1.4935692e-38
0.59593391 -0.043998264 0.70570409 1.4935692e-38
0.59856981 -0.043862056 0.70592052 1.4935692e-38
0.60184419 -0.043485604 0.70623124 1.4935692e-38
0.60489798 -0.043641403 0.70640761 1.5027888e-38
0.60742956 -0.042696882 0.70637804 1.5212279e-38
0.61029053 -0.043118794 0.70639455 1.5581061e-38
0.61353856 -0.043291464 0.70640039 1.8623153e-38
0.61675739 -0.043460142 0.70645595 1.9545106e-38
0.61888182 -0.043569695 0.70652819 1.9637665e-38
0.62217933 -0.043491524 0.70612198 1.6686324e-38
0.62609309 -0.043161616 0.7058692 1.6133507e-38
0.58184111 -0.039280776 0.70509404 1.7148387e-38
0.58393216 -0.040186651 0.70506507 1.5673257e-38
0.58604461 -0.039499789 0.70501959 1.539667e-38
0.58902341 -0.040444802 0.70519197 1.4935692e-38
0.59296942 -0.040635884 0.70547736 1.4935692e-38
0.59593672 -0.040779147 0.70570093 1.4935692e-38
0.59888071 -0.040918991 0.70596993 1.4935692e-38
0.60186017 -0.04106193 0.70621288 1.4935692e-38
0.60390425 -0.041162916 0.70631844 1.5212279e-38
0.60716122 -0.040522173 0.70627546 1.5212279e-38
0.61042702 -0.039877031 0.70624018 1.7978146e-38
0.61365873 -0.040039357 0.70626503 1.9453274e-38
0.61684108 -0.040195778 0.70636237 1.9452915e-38
0.61982226 -0.040330604 0.70670384 1.9268884e-38
0.62286597 -0.040471092 0.70699024 1.9268517e-38
0.62492788 -0.040567651 0.70715463 1.9729505e-38
0.62799466 -0.040767245 0.70622212 1.8714987e-38
0.63131166 -0.040161796 0.7050311 1.8346203e-38
0.58105916 -0.037114363 0.70520765 1.6687409e-38
0.5838064 -0.036984541 0.70521438 1.5488866e-38
0.58594972 -0.037093911 0.70513177 1.539667e-38
0.58903331 -0.037243534 0.70518029 1.4935692e-38
0.59297603 -0.037424479 0.70546961 1.4935692e-38
0.59591901 -0.037557885 0.7057215 1.4935692e-38
0.5988912 -0.037693437 0.70595789 1.4935692e-38
0.60190427 -0.03783245 0.70616221 1.5027888e-38
0.60403848 -0.03793744 0.70616496 1.5212279e-38
0.60726273 -0.038096499 0.70615995 1.5857648e-38
0.61052948 -0.037444789 0.70612425 1.9084494e-38
0.61407274 -0.037068531 0.70620704 1.9452915e-38
0.61670965 -0.036909547 0.70650947 1.917669e-38
0.61961746 -0.037030052 0.70693183 1.9176325e-38
0.62265563 -0.037162665 0.70722306 1.9360352e-38
0.62480164 -0.037262321 0.70729387 1.9913893e-38
0.62710398 -0.037376914 0.70720112 2.0283037e-38
0.63037443 -0.037584834 0.70605743 1.9360356e-38
0.63356328 -0.036953412 0.70501995 1.7608274e-38
0.57773459 -0.035105076 0.7050873 1.8715711e-38
0.58028597 -0.034952167 0.70531124 1.6226431e-38
0.58371204 -0.034583852 0.70532626 1.539667e-38
0.58652943 -0.033654198 0.7052663 1.539667e-38
0.58935302 -0.034321271 0.70521361 1.5027888e-38
0.59297466 -0.034212209 0.70547116 1.4935692e-38
0.59593403 -0.034339994 0.70570397 1.4935692e-38
0.59891778 -0.034469333 0.70592719 1.4935692e-38
0.60203159 -0.034610528 0.70601606 1.5212279e-38
0.60417271 -0.034710504 0.70601141 1.5304475e-38
0.60739815 -0.034861036 0.70600593 1.7609364e-38
0.61063027 -0.035011463 0.70601016 1.9637666e-38
0.61336893 -0.034859296 0.70618325 1.9176685e-38
0.61656028 -0.034440905 0.7066766 1.917669e-38
0.61946398 -0.034556042 0.70710266 1.9268522e-38
0.62248147 -0.033859801 0.70741594 1.9913893e-38
0.62581098 -0.034011032 0.7074036 1.9914256e-38
0.62981063 -0.035049576 0.70667487 2.0743657e-38
0.57496423 -0.031541348 0.70514202 1.89923e-38
0.57750481 -0.031910546 0.70536298 1.68718e-38
0.58044839 -0.032036856 0.70552695 1.5120083e-38
0.58361769 -0.032184035 0.70543826 1.539667e-38
0.58680332 -0.031532817 0.70535231 1.539667e-38
0.59000492 -0.030878073 0.70526546 1.5027888e-38
0.59299165 -0.031001637 0.70545137 1.4935692e-38
0.59595633 -0.031122603 0.70567822 1.4935692e-38
0.59862638 -0.031501807 0.70585519 1.5027888e-38
0.60146475 -0.031088307 0.70585161 1.5304475e-38
0.604307 -0.031482093 0.70585769 1.6226431e-38
0.60753363 -0.031624094 0.70585173 1.9268525e-38
0.61067092 -0.031757422 0.70596415 1.9360719e-38
0.61354291 -0.031865969 0.70639527 1.9084132e-38
0.61641097 -0.031973615 0.70684385 1.8991931e-38
0.61931056 -0.032083426 0.70727348 1.9176325e-38
0.62240446 -0.031388599 0.70750123 1.9914256e-38
0.62564373 -0.03074895 0.70636499 1.806962e-38
0.62822664 -0.031702347 0.70596719 1.7055827e-38
0.57153833 -0.027703177 0.70518553 1.8715713e-38
0.57442886 -0.028607711 0.70537788 1.8162539e-38
0.57727921 -0.028718989 0.70563364 1.4935692e-38
0.58029532 -0.028844435 0.70570958 1.539667e-38
0.58349198 -0.028985469 0.70558739 1.539667e-38
0.5867033 -0.029126931 0.70547032 1.5304475e-38
0.58990854 -0.028466027 0.70537853 1.5212279e-38
0.59331441 -0.028068982 0.7054835 1.5120083e-38
0.59597862 -0.027904965 0.7056523 1.4935692e-38
0.59803611 -0.027987249 0.70571971 1.5212279e-38
0.60122871 -0.02811921 0.7057147 1.5673256e-38
0.60441869 -0.028250301 0.70572996 1.8623512e-38
0.60756296 -0.028376736 0.7058183 1.9176687e-38
0.61045963 -0.028481541 0.70620334 1.9176331e-38
0.61331964 -0.028582528 0.70664656 1.9084131e-38
0.61618972 -0.028683873 0.70709145 1.8992296e-38
0.61933696 -0.028807536 0.70724463 1.9268885e-38
0.62298369 -0.029795218 0.70685983 1.770156e-38
0.56951976 -0.025256135 0.7051785 1.8623882e-38
0.5713675 -0.025321916 0.7053926 1.9084497e-38
0.5742051 -0.025425756 0.70564771 1.6226431e-38
0.57705379 -0.025529999 0.70590395 1.4935692e-38
0.58017069 -0.025656153 0.70585823 1.539667e-38
0.58335936 -0.025787745 0.70574462 1.5304475e-38
0.58655709 -0.025919236 0.70564282 1.539667e-38
0.58980811 -0.026054533 0.70549643 1.5212279e-38
0.59255058 -0.025893925 0.70555753 1.5212279e-38
0.59598857 -0.025491033 0.70564073 1.5212279e-38
0.5980742 -0.025571667 0.70567572 1.5304475e-38
0.60118937 -0.024882641 0.70576 1.724058e-38
0.60434616 -0.025002616 0.70581305 1.9360711e-38
0.60739797 -0.025113527 0.70600599 1.9176688e-38
0.61076117 -0.024947593 0.70667839 1.8807544e-38
0.61332744 -0.025576746 0.70704508 1.9083768e-38
0.61593521 -0.025393791 0.70737624 1.9453276e-38
0.61803937 -0.025471708 0.70746779 1.9729863e-38
0.62190545 -0.026510037 0.7056095 1.7977422e-38
0.5683226 -0.022053132 0.70540816 6.1797627e-39
0.57175654 -0.021906355 0.70574093 1.2631576e-38
0.57431579 -0.022521777 0.70592338 1.4935693e-38
0.57755989 -0.022108352 0.7061162 1.5304475e-38
0.58039361 -0.022746891 0.70600122 1.5304475e-38
0.58318251 -0.02258803 0.70595443 1.5304475e-38
0.58644402 -0.022715755 0.70577639 1.5488866e-38
0.58967423 -0.022840459 0.70565349 1.5212279e-38
0.59277254 -0.022954091 0.70570713 1.5212279e-38
0.59590697 -0.023069942 0.70573545 1.5212279e-38
0.59799218 -0.023146454 0.70577049 1.5304475e-38
0.60110664 -0.022451371 0.70585513 1.8623516e-38
0.60424101 -0.022563461 0.70593321 1.9729503e-38
0.60721976 -0.021851126 0.70620865 1.9176328e-38
0.61088932 -0.0219585 0.70694131 1.8715709e-38
0.61386538 -0.022054909 0.70725429 1.9729863e-38
0.61598611 -0.02212896 0.70731932 1.9729865e-38
0.61950958 -0.022304716 0.70582819 1.7332053e-38
0.56581372 -0.01855148 0.70560485 4.612451e-39
0.56834817 -0.019157028 0.70578653 4.8890435e-39
0.571823 -0.01900629 0.70607007 5.6265959e-39
0.57469851 -0.019099042 0.70627975 8.8526764e-39
0.57776618 -0.019205257 0.70627815 1.3553144e-38
0.58089912 -0.01931572 0.70621562 1.521228e-38
0.5830127 -0.019390786 0.7061559 1.5304476e-38
0.58636594 -0.019516114 0.70586848 1.539667e-38
0.58954042 -0.019627878 0.70581043 1.5212279e-38
0.59264976 -0.019734208 0.70585054 1.5212279e-38
0.59579813 -0.019842824 0.70586175 1.5396309e-38
0.59857088 -0.019667808 0.70591944 1.7701554e-38
0.60137486 -0.020302001 0.70595485 1.9361079e-38
0.60411513 -0.020123783 0.70607722 1.9637305e-38
0.60708618 -0.019405551 0.7063607 1.917669e-38
0.61079925 -0.019510025 0.70704317 1.9268885e-38
0.61392069 -0.019611284 0.70719212 1.9729865e-38
0.61606032 -0.018865194 0.70723629 1.9637665e-38
0.56340927 -0.017173853 0.70527577 4.2436572e-39
0.56588054 -0.016450783 0.70593292 4.8890435e-39
0.56873024 -0.016537458 0.70613939 4.8890435e-39
0.57155913 -0.015833978 0.70638937 4.8890463e-39
0.57462513 -0.015932543 0.70636815 4.8890435e-39
0.57759714 -0.016024183 0.70648056 6.4563467e-39
0.58071876 -0.016125437 0.70643026 1.0511817e-38
0.58293194 -0.016201427 0.70625174 1.3737896e-38
0.58626604 -0.016315877 0.7059862 1.5120088e-38
0.58940667 -0.016416794 0.70596743 1.5212279e-38
0.59254134 -0.016516652 0.70597708 1.5304475e-38
0.59568942 -0.01661692 0.70598793 1.6595213e-38
0.59881234 -0.016714895 0.70604903 1.9268884e-38
0.60189629 -0.016809799 0.70617139 1.9637306e-38
0.6046192 -0.016622057 0.7063179 1.9729505e-38
0.60728258 -0.017241167 0.70654505 1.8991935e-38
0.61074984 -0.017065037 0.70709908 1.9268521e-38
0.61397249 -0.017166927 0.70713395 1.9729862e-38
0.61721265 -0.01648695 0.70594651 1.742425e-38
0.56205404 -0.013985874 0.70571518 4.3358571e-39
0.56565541 -0.014082008 0.70620841 4.8890435e-39
0.56850338 -0.014163306 0.70641547 4.8890435e-39
0.57152379 -0.013467049 0.70643228 4.9812433e-39
0.57458037 -0.013558898 0.70642203 4.8890435e-39
0.57748306 -0.012848425 0.706617 4.8890449e-39
0.5806269 -0.01294261 0.70653975 5.5344115e-39
0.5828656 -0.013013892 0.70633042 6.6407408e-39
0.58616626 -0.013116758 0.70610386 1.1156815e-38
0.58929217 -0.013208367 0.70610183 1.5027892e-38
0.59243703 -0.013300563 0.70609874 1.5765454e-38
0.5955807 -0.013392221 0.70611411 1.8807906e-38
0.59866726 -0.013479851 0.70621645 1.9545469e-38
0.60172939 -0.01356554 0.70636296 1.9729863e-38
0.60480809 -0.013651695 0.70651019 1.9729865e-38
0.60771286 -0.013726944 0.70687068 1.871571e-38
0.61076897 -0.013810727 0.70707762 1.9821696e-38
0.6140399 -0.013907047 0.70705819 1.9913892e-38
0.55753726 -0.0099651925 0.70515448 4.2436572e-39
0.55991733 -0.010792301 0.70589429 4.3358571e-39
0.56252098 -0.010852652 0.70636857 4.8890435e-39
0.56538808 -0.010928412 0.70653558 4.8890449e-39
0.56841958 -0.011013575 0.70651746 4.9812433e-39
0.57153016 -0.011102959 0.70642459 4.9812433e-39
0.57453567 -0.011185674 0.70647585 4.8890435e-39
0.57746375 -0.010471253 0.70664024 4.8890463e-39
0.58058161 -0.010557532 0.70659369 4.9812433e-39
0.58279943 -0.0098271044 0.70640892 4.9816048e-39
0.58606881 -0.0099188853 0.7062189 5.4425718e-39
0.58918869 -0.010001848 0.70622325 7.654513e-39
0.59233278 -0.010085632 0.70622045 1.2724135e-38
