# .PCD v0.7 - Point Cloud Data file format
VERSION 0.7
FIELDS x y z rgb
SIZE 4 4 4 4
TYPE F F F F
COUNT 1 1 1 1
WIDTH 1016
HEIGHT 1
VIEWPOINT 0 0 0 1 0 0 0
POINTS 1016
DATA ascii
0.73356432 -0.42150062 0.61000127 1.1063476e-38
0.73617744 -0.42135018 0.61000121 1.1063476e-38
0.73880005 -0.42119917 0.61000127 1.1063476e-38
0.74143219 -0.42200863 0.61000127 1.1063476e-38
0.74584168 -0.42175767 0.61000133 1.1063476e-38
0.74938673 -0.42155588 0.61000133 1.1063476e-38
0.75205779 -0.42140386 0.61000133 1.1063476e-38
0.75473863 -0.42125124 0.61000139 1.1063476e-38
0.75742948 -0.42109811 0.61000139 1.1063476e-38
0.76013023 -0.42191792 0.61000139 1.1063476e-38
0.76284087 -0.42176539 0.61000144 1.1063476e-38
0.76556182 -0.42161238 0.61000139 1.1063476e-38
0.76829267 -0.42145872 0.6100015 1.1063476e-38
0.7719509 -0.42125297 0.6100015 1.1063476e-38
0.77654684 -0.4209944 0.6100015 1.1063476e-38
0.77931887 -0.42182475 0.6100015 1.1063476e-38
0.78210127 -0.42167008 0.61000156 1.1063476e-38
0.78489417 -0.42151484 0.61000156 1.1063476e-38
0.78769755 -0.421359 0.61000162 1.1063476e-38
0.79051155 -0.4212026 0.61000156 1.1063476e-38
0.79333621 -0.4210456 0.61000162 1.1063476e-38
0.79617161 -0.42188549 0.61000162 1.1063476e-38
0.79901773 -0.42172915 0.61000168 1.1063476e-38
0.80187464 -0.42157221 0.61000174 1.1063476e-38
0.80474252 -0.42141467 0.61000174 1.1063476e-38
0.8076213 -0.4212566 0.61000174 1.1063476e-38
0.81051123 -0.4210979 0.61000168 1.1063476e-38
0.81341207 -0.42194757 0.61000174 1.1063476e-38
0.81632423 -0.42178959 0.61000174 1.1063476e-38
0.81924742 -0.42163095 0.6100018 1.1063476e-38
0.822182 -0.42147171 0.61000186 1.1063476e-38
0.82512784 -0.42131189 0.61000186 1.1063476e-38
0.82808524 -0.42115146 0.6100018 1.1063476e-38
0.83105391 -0.42201108 0.61000192 1.1063476e-38
0.83403426 -0.4218514 0.61000186 1.1063476e-38
0.83702624 -0.42169106 0.61000192 1.1063476e-38
0.84002972 -0.42153007 0.61000198 1.1063476e-38
0.84304512 -0.42136848 0.61000192 1.1063476e-38
0.84607226 -0.42120627 0.61000198 1.1063476e-38
0.84911132 -0.4210434 0.61000198 1.1063476e-38
0.85216236 -0.4219147 0.61000192 1.1063476e-38
0.85522527 -0.42175254 0.6100021 1.1063476e-38
0.85830039 -0.42158979 0.61000204 1.1063476e-38
0.86138767 -0.42142639 0.6100021 1.1063476e-38
0.86448717 -0.42126238 0.61000216 1.1063476e-38
0.86759901 -0.4210977 0.61000216 1.1063476e-38
0.33162957 -0.41849145 0.60999864 1.097128e-38
0.33502093 -0.41855586 0.60999858 1.097128e-38
0.33775085 -0.41833055 0.60999858 1.097128e-38
0.34035754 -0.41846219 0.60999858 1.097128e-38
0.34325391 -0.41857183 0.60999858 1.097128e-38
0.34602728 -0.41834474 0.60999858 1.097128e-38
0.3495155 -0.41840944 0.60999864 1.097128e-38
0.35302567 -0.41847423 0.6099987 1.097128e-38
0.35599294 -0.41858569 0.6099987 1.097128e-38
0.35869199 -0.41872078 0.6099987 1.097128e-38
0.36154801 -0.41849074 0.6099987 1.097128e-38
0.36441952 -0.41825944 0.60999882 1.097128e-38
0.36716181 -0.41839427 0.60999882 1.097128e-38
0.37020919 -0.41850656 0.60999882 1.097128e-38
0.37312764 -0.41827339 0.60999882 1.097128e-38
0.37606204 -0.41875732 0.60999882 1.097128e-38
0.37901253 -0.41852361 0.60999888 1.097128e-38
0.38197914 -0.41828865 0.60999888 1.097128e-38
0.38481259 -0.41842571 0.60999894 1.097128e-38
0.38796157 -0.41854 0.60999894 1.097128e-38
0.39097756 -0.41830307 0.60999894 1.097128e-38
0.39401031 -0.41879511 0.60999894 1.097128e-38
0.39705992 -0.41855758 0.60999894 1.097128e-38
0.40012658 -0.41831872 0.60999906 1.097128e-38
0.40305567 -0.41845828 0.609999 1.097128e-38
0.40631139 -0.41857451 0.60999906 1.097128e-38
0.40942997 -0.41833371 0.609999 1.097128e-38
0.41256607 -0.41883415 0.60999906 1.097128e-38
0.41571993 -0.41859269 0.60999918 1.097128e-38
0.41889173 -0.41834989 0.60999918 1.097128e-38
0.42208153 -0.41810572 0.60999918 1.097128e-38
0.42448527 -0.41904655 0.60999918 1.097128e-38
0.42690039 -0.41848847 0.60999918 1.097128e-38
0.43013602 -0.41824293 0.60999918 1.097128e-38
0.43339026 -0.41875142 0.60999918 1.097128e-38
0.43666315 -0.41850525 0.6099993 1.097128e-38
0.43995506 -0.41825762 0.60999918 1.097128e-38
0.44243586 -0.41845226 0.6099993 1.097128e-38
0.44492874 -0.41864717 0.6099993 1.097128e-38
0.44826859 -0.41839814 0.60999936 1.097128e-38
0.45134726 -0.41855288 0.60999942 1.097128e-38
0.45500714 -0.41866666 0.60999936 1.097128e-38
0.4575538 -0.41809216 0.60999936 1.097128e-38
0.46011299 -0.41828883 0.60999942 1.097128e-38
0.46354204 -0.4188121 0.60999942 1.097128e-38
0.46699131 -0.41855952 0.60999942 1.097128e-38
0.46959108 -0.41797882 0.60999948 1.097128e-38
0.47191295 -0.41858968 0.60999948 1.097128e-38
0.47570461 -0.41870567 0.60999954 1.097128e-38
0.47834325 -0.41812092 0.60999954 1.097128e-38
0.48099518 -0.41832119 0.60999954 1.097128e-38
0.48454869 -0.418854 0.60999954 1.097128e-38
0.48722714 -0.41826516 0.60999966 1.097128e-38
0.48991913 -0.41846725 0.6099996 1.097128e-38
0.49322501 -0.41862783 0.60999966 1.097128e-38
0.49624574 -0.41841161 0.60999966 1.097128e-38
0.49897873 -0.41861558 0.60999966 1.097128e-38
0.50264126 -0.41835475 0.60999966 1.097128e-38
0.50540209 -0.4185603 0.60999972 1.097128e-38
0.50848609 -0.41834173 0.60999972 1.097128e-38
0.51189601 -0.41850373 0.60999978 1.097128e-38
0.51469946 -0.41871127 0.60999978 1.097128e-38
0.51783115 -0.41849136 0.60999978 1.097128e-38
0.52034688 -0.41912854 0.60999984 1.097128e-38
0.52319109 -0.41852313 0.60999978 1.097128e-38
0.52700299 -0.4182567 0.60999978 1.097128e-38
0.52987671 -0.41846561 0.60999984 1.097128e-38
0.53276539 -0.41867608 0.6099999 1.097128e-38
0.53566623 -0.41806287 0.6099999 1.097128e-38
0.53825754 -0.41870841 0.6099999 1.097128e-38
0.5415104 -0.4184843 0.6099999 1.097128e-38
0.54478174 -0.41825891 0.60999995 1.097128e-38
0.54741001 -0.41890973 0.60999995 1.097128e-38
0.55038166 -0.41829032 0.60999995 1.097128e-38
0.55336583 -0.41850328 0.61000001 1.097128e-38
0.55636591 -0.41871786 0.61000001 1.097128e-38
0.55937874 -0.41809303 0.61000001 1.097128e-38
0.56207037 -0.418751 0.61000013 1.097128e-38
0.56544948 -0.41852269 0.61000007 1.097128e-38
0.56884813 -0.41829309 0.61000013 1.097128e-38
0.57157886 -0.41895652 0.61000013 1.097128e-38
0.57466674 -0.41832528 0.61000013 1.097128e-38
0.57776785 -0.41854244 0.61000025 1.097128e-38
0.58088583 -0.41876131 0.61000019 1.097128e-38
0.58401728 -0.41812435 0.61000025 1.097128e-38
0.58611399 -0.41884172 0.61000031 1.097128e-38
0.58962458 -0.41860926 0.61000019 1.097128e-38
0.59244543 -0.41842234 0.61000031 1.097128e-38
0.59563535 -0.41864344 0.61000031 1.097128e-38
0.59883934 -0.41799888 0.61000031 1.097128e-38
0.60098475 -0.41872433 0.61000031 1.097128e-38
0.60457683 -0.41848877 0.61000037 1.097128e-38
0.60746342 -0.4182995 0.61000037 1.097128e-38
0.61072797 -0.41852286 0.61000037 1.097128e-38
0.61400688 -0.41874665 0.61000043 1.097128e-38
0.61620265 -0.41860414 0.61000043 1.097128e-38
0.61987931 -0.41836551 0.61000049 1.097128e-38
0.62283391 -0.41905585 0.61000049 1.097128e-38
0.62505925 -0.41802931 0.61000043 1.097128e-38
0.6280387 -0.41872144 0.61000055 1.097128e-38
0.63178015 -0.41848114 0.61000049 1.097128e-38
0.63403559 -0.41833627 0.61000049 1.097128e-38
0.63743401 -0.4185642 0.61000061 1.097128e-38
0.64084798 -0.41789863 0.61000055 1.097128e-38
0.64313418 -0.41864735 0.61000061 1.097128e-38
0.64696282 -0.41840395 0.61000061 1.097128e-38
0.65003979 -0.4182083 0.61000073 1.097128e-38
0.65235752 -0.41806099 0.61000067 1.097128e-38
0.65468317 -0.41881645 0.61000067 1.097128e-38
0.65857786 -0.41857138 0.61000067 1.097128e-38
0.66170818 -0.41837454 0.61000073 1.097128e-38
0.66406608 -0.41822618 0.61000073 1.097128e-38
0.66761923 -0.41845822 0.61000079 1.097128e-38
0.67118883 -0.41869238 0.61000085 1.097128e-38
0.67357957 -0.41854358 0.61000085 1.097128e-38
0.67597878 -0.41839427 0.61000085 1.097128e-38
0.67959428 -0.41862953 0.61000085 1.097128e-38
0.68322659 -0.41978776 0.61000085 1.097128e-38
0.72406477 -0.4182497 0.61000121 1.1063476e-38
0.72836655 -0.41799051 0.61000127 1.1063476e-38
0.73096073 -0.41878831 0.61000121 1.1063476e-38
0.73356432 -0.41863316 0.61000127 1.1063476e-38
0.73617744 -0.41847751 0.61000121 1.1063476e-38
0.73880005 -0.41832125 0.61000127 1.1063476e-38
0.74143219 -0.41816443 0.61000127 1.1063476e-38
0.74495786 -0.41891775 0.61000133 1.1063476e-38
0.74938673 -0.4186568 0.61000133 1.1063476e-38
0.75205779 -0.41849947 0.61000133 1.1063476e-38
0.75473863 -0.41834149 0.61000139 1.1063476e-38
0.75742948 -0.41818297 0.61000139 1.1063476e-38
0.76013023 -0.41802391 0.61000139 1.1063476e-38
0.76284087 -0.41883945 0.61000144 1.1063476e-38
0.76556182 -0.41868103 0.61000139 1.1063476e-38
0.76829267 -0.41852188 0.6100015 1.1063476e-38
0.77286798 -0.41825542 0.6100015 1.1063476e-38
0.77654684 -0.41804111 0.6100015 1.1063476e-38
0.77931887 -0.41886592 0.6100015 1.1063476e-38
0.78210127 -0.4187057 0.61000156 1.1063476e-38
0.78489417 -0.41854489 0.61000156 1.1063476e-38
0.78769755 -0.41838345 0.61000162 1.1063476e-38
0.79051155 -0.41822141 0.61000156 1.1063476e-38
0.79333621 -0.41805875 0.61000162 1.1063476e-38
0.79617161 -0.41889298 0.61000162 1.1063476e-38
0.79901773 -0.41873097 0.61000168 1.1063476e-38
0.80187464 -0.41856834 0.61000174 1.1063476e-38
0.80474252 -0.41840512 0.61000174 1.1063476e-38
0.8076213 -0.41824126 0.61000174 1.1063476e-38
0.81174612 -0.41864926 0.60966355 1.1063476e-38
0.81341207 -0.41892064 0.61000174 1.1063476e-38
0.81632423 -0.41875684 0.61000174 1.1063476e-38
0.81924742 -0.41859239 0.6100018 1.1063476e-38
0.822182 -0.41842732 0.61000186 1.1063476e-38
0.82512784 -0.41826159 0.61000186 1.1063476e-38
0.82808524 -0.41809526 0.6100018 1.1063476e-38
0.83105391 -0.41894895 0.61000192 1.1063476e-38
0.83403426 -0.41878331 0.61000186 1.1063476e-38
0.83702624 -0.41861698 0.61000192 1.1063476e-38
0.84002972 -0.41845 0.61000198 1.1063476e-38
0.84304512 -0.41828242 0.61000192 1.1063476e-38
0.84607226 -0.41811413 0.61000198 1.1063476e-38
0.84911132 -0.41897792 0.61000198 1.1063476e-38
0.85216236 -0.4188104 0.61000192 1.1063476e-38
0.85522527 -0.4186421 0.6100021 1.1063476e-38
0.85830039 -0.41847324 0.61000204 1.1063476e-38
0.86138767 -0.41830367 0.6100021 1.1063476e-38
0.86448717 -0.41813344 0.61000216 1.1063476e-38
0.86759901 -0.41796255 0.61000216 1.1063476e-38
0.33162946 -0.41527954 0.60999864 1.0879084e-38
0.3351571 -0.41543666 0.60999858 1.097128e-38
0.33775085 -0.41556117 0.60999858 1.097128e-38
0.34049511 -0.41532734 0.60999858 1.097128e-38
0.34311563 -0.41545182 0.60999858 1.097128e-38
0.34602731 -0.41555333 0.60999858 1.097128e-38
0.34951568 -0.41537538 0.60999864 1.097128e-38
0.35302567 -0.41566417 0.6099987 1.097128e-38
0.35585129 -0.41542718 0.6099987 1.097128e-38
0.35883442 -0.41553035 0.6099987 1.097128e-38
0.36154804 -0.415658 0.6099987 1.097128e-38
0.36441952 -0.41541904 0.60999882 1.097128e-38
0.36730653 -0.41517884 0.60999876 1.097128e-38
0.37020919 -0.41565073 0.60999882 1.097128e-38
0.37312764 -0.41540986 0.60999882 1.097128e-38
0.3762092 -0.41551471 0.60999882 1.097128e-38
0.37901253 -0.41564435 0.60999888 1.097128e-38
0.38197911 -0.41540149 0.60999888 1.097128e-38
0.38496211 -0.4151572 0.60999894 1.097128e-38
0.38796157 -0.4156369 0.60999894 1.097128e-38
0.39097756 -0.41539195 0.60999894 1.097128e-38
0.39401031 -0.41587594 0.60999894 1.097128e-38
0.39705992 -0.41563031 0.60999894 1.097128e-38
0.40012655 -0.41538328 0.60999906 1.097128e-38
0.40321031 -0.41513491 0.609999 1.097128e-38
0.40631139 -0.41562253 0.60999906 1.097128e-38
0.40942997 -0.41537344 0.609999 1.097128e-38
0.41256607 -0.4158656 0.60999906 1.097128e-38
0.41571993 -0.41561571 0.60999918 1.097128e-38
0.41889173 -0.4153645 0.60999918 1.097128e-38
0.42208153 -0.41511178 0.60999918 1.097128e-38
0.42448527 -0.41604623 0.60999918 1.097128e-38
0.42690039 -0.41548169 0.60999918 1.097128e-38
0.43013602 -0.41522756 0.60999918 1.097128e-38
0.43339026 -0.41572744 0.60999918 1.097128e-38
0.43666315 -0.41547251 0.6099993 1.097128e-38
0.43995509 -0.41521615 0.60999918 1.097128e-38
0.44243586 -0.41540414 0.6099993 1.097128e-38
0.44492871 -0.41559243 0.6099993 1.097128e-38
0.44826859 -0.41533452 0.60999936 1.097128e-38
0.45162803 -0.41584378 0.60999942 1.097128e-38
0.45500714 -0.4155851 0.60999936 1.097128e-38
0.4575538 -0.41500381 0.60999936 1.097128e-38
0.45982805 -0.41560254 0.60999942 1.097128e-38
0.46354204 -0.41570777 0.60999942 1.097128e-38
0.46699131 -0.41544604 0.60999942 1.097128e-38
0.46959108 -0.4148584 0.60999948 1.097128e-38
0.47220379 -0.41583228 0.60999948 1.097128e-38
0.47570461 -0.41556895 0.60999948 1.097128e-38
0.47834325 -0.41497719 0.60999954 1.097128e-38
0.48069993 -0.41558668 0.60999948 1.097128e-38
0.48454869 -0.41569376 0.60999954 1.097128e-38
0.48722714 -0.41509777 0.60999966 1.097128e-38
0.48991913 -0.41529274 0.6099996 1.097128e-38
0.49352652 -0.41582039 0.60999966 1.097128e-38
0.49624574 -0.41522023 0.60999966 1.097128e-38
0.49897873 -0.4154169 0.60999966 1.097128e-38
0.50233513 -0.41557017 0.60999966 1.097128e-38
0.50540209 -0.41534454 0.60999972 1.097128e-38
0.50817716 -0.41554302 0.60999972 1.097128e-38
0.51158518 -0.41569781 0.60999972 1.097128e-38
0.51469946 -0.41547075 0.60999978 1.097128e-38
0.51751739 -0.41567105 0.60999978 1.097128e-38
0.52034688 -0.41587299 0.60999984 1.097128e-38
0.52319109 -0.41525999 0.60999978 1.097128e-38
0.52732164 -0.41536927 0.60999978 1.097128e-38
0.52987671 -0.41600493 0.60999984 1.097128e-38
0.53276539 -0.41538742 0.6099999 1.097128e-38
0.53566623 -0.41559058 0.6099999 1.097128e-38
0.53858221 -0.41579524 0.6099999 1.097128e-38
0.5415104 -0.4151724 0.6099999 1.097128e-38
0.54445398 -0.41537637 0.60999995 1.097128e-38
0.54741001 -0.41558209 0.60999995 1.097128e-38
0.55071253 -0.41534793 0.60999995 1.097128e-38
0.55336583 -0.41599569 0.61000001 1.097128e-38
0.55636591 -0.41536641 0.61000001 1.097128e-38
0.55937874 -0.41557342 0.61000001 1.097128e-38
0.56240761 -0.41578197 0.61000013 1.097128e-38
0.56544948 -0.41514704 0.61000007 1.097128e-38
0.56850761 -0.41535491 0.61000013 1.097128e-38
0.57157886 -0.41556454 0.61000013 1.097128e-38
0.5750106 -0.41532585 0.61000013 1.097128e-38
0.57776785 -0.41598612 0.61000025 1.097128e-38
0.58088583 -0.41534457 0.61000019 1.097128e-38
0.58401728 -0.41555554 0.61000025 1.097128e-38
0.58611399 -0.41541106 0.61000031 1.097128e-38
0.58927286 -0.41562298 0.61000019 1.097128e-38
0.59244543 -0.41583669 0.61000031 1.097128e-38
0.5959906 -0.41559482 0.61000031 1.097128e-38
0.59883934 -0.41540045 0.61000031 1.097128e-38
0.60098475 -0.41525406 0.61000031 1.097128e-38
0.60421693 -0.41546798 0.61000037 1.097128e-38
0.60746342 -0.41568384 0.61000037 1.097128e-38
0.61109149 -0.41543874 0.61000037 1.097128e-38
0.61400688 -0.41611794 0.61000043 1.097128e-38
0.61620265 -0.41509336 0.61000043 1.097128e-38
0.61914247 -0.41577438 0.61000043 1.097128e-38
0.62283391 -0.41552737 0.61000049 1.097128e-38
0.62505925 -0.41537851 0.61000043 1.097128e-38
0.62841213 -0.4155975 0.61000049 1.097128e-38
0.63178015 -0.41492888 0.61000049 1.097128e-38
0.63403559 -0.41566756 0.61000049 1.097128e-38
0.63781244 -0.41541734 0.61000061 1.097128e-38
0.64084798 -0.41521633 0.61000055 1.097128e-38
0.64313418 -0.41506487 0.61000061 1.097128e-38
0.64619547 -0.41575971 0.61000067 1.097128e-38
0.65003979 -0.41550767 0.61000073 1.097128e-38
0.65235752 -0.41535568 0.61000067 1.097128e-38
0.65468317 -0.41520321 0.61000067 1.097128e-38
0.65779728 -0.41590437 0.61000067 1.097128e-38
0.66170818 -0.41565058 0.61000073 1.097128e-38
0.66406608 -0.41549748 0.61000073 1.097128e-38
0.66722351 -0.41529259 0.61000079 1.097128e-38
0.67118883 -0.41503516 0.61000085 1.097128e-38
0.67357957 -0.41579586 0.61000085 1.097128e-38
0.67597878 -0.41564178 0.61000085 1.097128e-38
0.67838627 -0.41640615 0.61000091 1.097128e-38
0.72492331 -0.41534773 0.61000115 1.1063476e-38
0.72836655 -0.41513342 0.61000127 1.1063476e-38
0.73096073 -0.41497195 0.61000121 1.1063476e-38
0.73356432 -0.4157657 0.61000127 1.1063476e-38
0.73617744 -0.41560483 0.61000121 1.1063476e-38
0.73880005 -0.41544333 0.61000127 1.1063476e-38
0.74143219 -0.41528124 0.61000127 1.1063476e-38
0.74539977 -0.41551918 0.61000133 1.1063476e-38
0.74938673 -0.41575778 0.61000133 1.1063476e-38
0.75205779 -0.41559508 0.61000133 1.1063476e-38
0.75473863 -0.41543174 0.61000139 1.1063476e-38
0.75742948 -0.41526785 0.61000139 1.1063476e-38
0.76013023 -0.41510338 0.61000139 1.1063476e-38
0.76284087 -0.41591352 0.61000144 1.1063476e-38
0.76556182 -0.41574964 0.61000139 1.1063476e-38
0.76829267 -0.4155851 0.6100015 1.1063476e-38
0.7719509 -0.41536471 0.6100015 1.1063476e-38
0.77654684 -0.41508782 0.6100015 1.1063476e-38
0.77931887 -0.41590708 0.6100015 1.1063476e-38
0.78210127 -0.41574132 0.61000156 1.1063476e-38
0.78489417 -0.41557491 0.61000156 1.1063476e-38
0.78769755 -0.4154079 0.61000162 1.1063476e-38
0.79051155 -0.41524023 0.61000156 1.1063476e-38
0.79333621 -0.4150719 0.61000162 1.1063476e-38
0.79617161 -0.41590047 0.61000162 1.1063476e-38
0.79901773 -0.4157328 0.61000168 1.1063476e-38
0.80187464 -0.41556448 0.61000174 1.1063476e-38
0.80474252 -0.4153955 0.61000174 1.1063476e-38
0.8076213 -0.41522592 0.61000174 1.1063476e-38
0.81051123 -0.41505566 0.61000168 1.1063476e-38
0.81341207 -0.41589373 0.61000174 1.1063476e-38
0.81632423 -0.4157241 0.61000174 1.1063476e-38
0.81924742 -0.41555381 0.6100018 1.1063476e-38
0.822182 -0.41538286 0.61000186 1.1063476e-38
0.82512784 -0.41521129 0.61000186 1.1063476e-38
0.82808524 -0.41503906 0.6100018 1.1063476e-38
0.83105391 -0.41588682 0.61000192 1.1063476e-38
0.83403426 -0.41571522 0.61000186 1.1063476e-38
0.83702624 -0.4155429 0.61000192 1.1063476e-38
0.84002972 -0.41536993 0.61000198 1.1063476e-38
0.84304512 -0.4151963 0.61000192 1.1063476e-38
0.84607226 -0.4160527 0.61000198 1.1063476e-38
0.84911132 -0.41587973 0.61000198 1.1063476e-38
0.85216236 -0.4157061 0.61000192 1.1063476e-38
0.85522527 -0.41553169 0.6100021 1.1063476e-38
0.85830039 -0.4153567 0.61000204 1.1063476e-38
0.86138767 -0.41518095 0.6100021 1.1063476e-38
0.86448717 -0.41500455 0.61000216 1.1063476e-38
0.86759901 -0.41587245 0.61000216 1.1063476e-38
0.33162943 -0.41252646 0.60999864 1.0879084e-38
0.33502096 -0.4123407 0.60999858 1.0879084e-38
0.33775085 -0.41279179 0.60999858 1.0879084e-38
0.34049511 -0.41255066 0.60999858 1.097128e-38
0.34325391 -0.41230828 0.60999858 1.097128e-38
0.34588823 -0.41242537 0.60999858 1.097128e-38
0.34951568 -0.41257465 0.60999864 1.097128e-38
0.35288477 -0.41251534 0.6099987 1.097128e-38
0.35585129 -0.41260958 0.6099987 1.097128e-38
0.35869199 -0.41236374 0.6099987 1.097128e-38
0.36154804 -0.41282526 0.6099987 1.097128e-38
0.36441952 -0.41257864 0.60999882 1.097128e-38
0.36730653 -0.41233081 0.60999882 1.097128e-38
0.37006369 -0.41245064 0.60999882 1.097128e-38
0.37312764 -0.41254628 0.60999882 1.097128e-38
0.37606207 -0.41229624 0.60999882 1.097128e-38
0.37901253 -0.41276515 0.60999888 1.097128e-38
0.38197911 -0.41251433 0.60999888 1.097128e-38
0.38496211 -0.41226214 0.60999894 1.097128e-38
0.38796157 -0.41273385 0.60999894 1.097128e-38
0.39097756 -0.41248086 0.60999894 1.097128e-38
0.39416239 -0.41257888 0.60999894 1.097128e-38
0.39705992 -0.41270298 0.60999894 1.097128e-38
0.40012658 -0.41244781 0.60999906 1.097128e-38
0.40321028 -0.41219124 0.609999 1.097128e-38
0.40631139 -0.41267061 0.60999906 1.097128e-38
0.40942997 -0.41241324 0.609999 1.097128e-38
0.41256607 -0.41289702 0.60999906 1.097128e-38
0.41571993 -0.41263878 0.60999918 1.097128e-38
0.41889173 -0.41237903 0.60999918 1.097128e-38
0.42208153 -0.41211787 0.60999918 1.097128e-38
0.42448527 -0.41304594 0.60999918 1.097128e-38
0.42690039 -0.41247499 0.60999918 1.097128e-38
0.43013602 -0.41221219 0.60999918 1.097128e-38
0.43339026 -0.41270339 0.60999918 1.097128e-38
0.43666315 -0.41243973 0.6099993 1.097128e-38
0.43967995 -0.41257715 0.60999918 1.097128e-38
0.44243586 -0.41235602 0.6099993 1.097128e-38
0.44492871 -0.41253769 0.6099993 1.097128e-38
0.44826862 -0.41227084 0.60999936 1.097128e-38
0.45162803 -0.41277117 0.60999942 1.097128e-38
0.45500714 -0.41250354 0.60999936 1.097128e-38
0.4575538 -0.41191545 0.60999936 1.097128e-38
0.46011299 -0.41287279 0.60999942 1.097128e-38
0.46354204 -0.4126035 0.60999942 1.097128e-38
0.46699134 -0.41233253 0.60999942 1.097128e-38
0.46959108 -0.41251808 0.60999948 1.097128e-38
0.47220379 -0.41270494 0.60999948 1.097128e-38
0.47570461 -0.41243228 0.60999954 1.097128e-38
0.47834325 -0.41183347 0.60999954 1.097128e-38
0.48099515 -0.41280791 0.60999954 1.097128e-38
0.48454869 -0.41253349 0.60999954 1.097128e-38
0.48722714 -0.41193044 0.60999966 1.097128e-38
0.4896194 -0.41253838 0.6099996 1.097128e-38
0.49352652 -0.41263625 0.60999966 1.097128e-38
0.49624574 -0.41202885 0.60999966 1.097128e-38
0.49867448 -0.41264156 0.60999966 1.097128e-38
0.50264132 -0.41274059 0.60999966 1.097128e-38
0.50540209 -0.41212875 0.60999972 1.097128e-38
0.50817716 -0.41231984 0.60999972 1.097128e-38
0.51189601 -0.41284651 0.60999972 1.097128e-38
0.51469946 -0.41223022 0.60999978 1.097128e-38
0.51751739 -0.41242301 0.60999978 1.097128e-38
0.52034688 -0.41261742 0.60999984 1.097128e-38
0.52350777 -0.4123807 0.60999984 1.097128e-38
0.52700299 -0.4125278 0.60999978 1.097128e-38
0.52987671 -0.41272399 0.60999984 1.097128e-38
0.53308702 -0.41248569 0.6099999 1.097128e-38
0.53566623 -0.41311836 0.6099999 1.097128e-38
0.53858221 -0.41249114 0.6099999 1.097128e-38
0.5415104 -0.41186047 0.6099999 1.097128e-38
0.54412627 -0.412496 0.60999995 1.097128e-38
0.54741001 -0.41225445 0.60999995 1.097128e-38
0.55038166 -0.41245252 0.61000001 1.097128e-38
0.55336583 -0.41265222 0.61000001 1.097128e-38
0.55669993 -0.41240916 0.61000007 1.097128e-38
0.55937874 -0.41305378 0.61000001 1.097128e-38
0.56240761 -0.4124144 0.61000013 1.097128e-38
0.56544948 -0.4126153 0.61000007 1.097128e-38
0.56816709 -0.41241905 0.61000013 1.097128e-38
0.57157886 -0.41217259 0.61000013 1.097128e-38
0.57466674 -0.41237426 0.61000013 1.097128e-38
0.57776785 -0.41257766 0.61000025 1.097128e-38
0.58123302 -0.4123297 0.61000019 1.097128e-38
0.58401728 -0.4129867 0.61000025 1.097128e-38
0.58611399 -0.41198036 0.61000031 1.097128e-38
0.58892113 -0.41263905 0.61000019 1.097128e-38
0.59244543 -0.41238916 0.61000031 1.097128e-38
0.59563541 -0.41259468 0.61000031 1.097128e-38
0.59883934 -0.41280201 0.61000031 1.097128e-38
0.60098475 -0.41265136 0.61000031 1.097128e-38
0.60385698 -0.4124496 0.61000031 1.097128e-38
0.60746342 -0.41219634 0.61000037 1.097128e-38
0.61072797 -0.41240379 0.61000037 1.097128e-38
0.61400688 -0.412613 0.61000043 1.097128e-38
0.61620265 -0.41246027 0.61000043 1.097128e-38
0.61951089 -0.41267046 0.61000049 1.097128e-38
0.62283391 -0.41199896 0.61000049 1.097128e-38
0.62505925 -0.41272777 0.61000043 1.097128e-38
0.62878555 -0.41247097 0.61000049 1.097128e-38
0.63178015 -0.4122647 0.61000049 1.097128e-38
0.63403559 -0.41210929 0.61000049 1.097128e-38
0.63705558 -0.41279277 0.61000061 1.097128e-38
0.64084798 -0.41253403 0.61000055 1.097128e-38
0.64313418 -0.41237801 0.61000061 1.097128e-38
0.64657915 -0.41259223 0.61000061 1.097128e-38
0.65003979 -0.41190678 0.61000073 1.097128e-38
0.65235752 -0.41265041 0.61000067 1.097128e-38
0.65468317 -0.41249329 0.61000067 1.097128e-38
0.65818757 -0.41270965 0.61000073 1.097128e-38
0.66170818 -0.41201863 0.61000073 1.097128e-38
0.66406608 -0.41276884 0.61000073 1.097128e-38
0.66801494 -0.41250464 0.61000079 1.097128e-38
0.67118883 -0.4122923 0.61000085 1.097128e-38
0.72578186 -0.41244245 0.61000115 1.1063476e-38
0.72836655 -0.41227633 0.61000127 1.1063476e-38
0.73096073 -0.41210967 0.61000121 1.1063476e-38
0.73356432 -0.41289824 0.61000127 1.1063476e-38
0.73617744 -0.41273212 0.61000121 1.1063476e-38
0.73880005 -0.41256541 0.61000127 1.1063476e-38
0.74143219 -0.41239807 0.61000127 1.1063476e-38
0.74584168 -0.41211772 0.61000133 1.1063476e-38
0.74938673 -0.41285869 0.61000133 1.1063476e-38
0.75205779 -0.4126907 0.61000133 1.1063476e-38
0.75473863 -0.41252199 0.61000139 1.1063476e-38
0.75742948 -0.41235274 0.61000139 1.1063476e-38
0.76013023 -0.41218287 0.61000139 1.1063476e-38
0.76284087 -0.41298759 0.61000144 1.1063476e-38
0.76556182 -0.41281831 0.61000139 1.1063476e-38
0.76829267 -0.41264826 0.6100015 1.1063476e-38
0.77286798 -0.4123635 0.6100015 1.1063476e-38
0.77654684 -0.41213453 0.6100015 1.1063476e-38
0.77931887 -0.41294825 0.6100015 1.1063476e-38
0.78210127 -0.41277695 0.61000156 1.1063476e-38
0.78489417 -0.41260493 0.61000156 1.1063476e-38
0.78769755 -0.41243234 0.61000162 1.1063476e-38
0.79051155 -0.41225904 0.61000156 1.1063476e-38
0.79333621 -0.41208509 0.61000162 1.1063476e-38
0.79617161 -0.41290802 0.61000162 1.1063476e-38
0.79901773 -0.41273463 0.61000168 1.1063476e-38
0.80187464 -0.41256058 0.61000174 1.1063476e-38
0.80474252 -0.41238588 0.61000174 1.1063476e-38
0.8076213 -0.41221052 0.61000174 1.1063476e-38
0.81051123 -0.41203457 0.61000168 1.1063476e-38
0.81341207 -0.41286683 0.61000174 1.1063476e-38
0.81632423 -0.41269138 0.61000174 1.1063476e-38
0.81924742 -0.41251522 0.6100018 1.1063476e-38
0.822182 -0.41233847 0.61000186 1.1063476e-38
0.82512784 -0.41216099 0.61000186 1.1063476e-38
0.82808524 -0.41300154 0.6100018 1.1063476e-38
0.83105391 -0.41282466 0.61000192 1.1063476e-38
0.83403426 -0.41264707 0.61000186 1.1063476e-38
0.83702624 -0.41246882 0.61000192 1.1063476e-38
0.84002972 -0.41228986 0.61000198 1.1063476e-38
0.84304512 -0.41211024 0.61000192 1.1063476e-38
0.84607226 -0.41296056 0.61000198 1.1063476e-38
0.84911132 -0.41278154 0.61000198 1.1063476e-38
0.85216236 -0.4126018 0.61000192 1.1063476e-38
0.85522527 -0.41242129 0.6100021 1.1063476e-38
0.85830039 -0.41224015 0.61000204 1.1063476e-38
0.86138767 -0.41205823 0.6100021 1.1063476e-38
0.86448717 -0.41291863 0.61000216 1.1063476e-38
0.86759901 -0.41273737 0.61000216 1.1063476e-38
0.33162928 -0.40954399 0.60999864 1.0879084e-38
0.33502096 -0.40957859 0.60999858 1.0879084e-38
0.3378877 -0.40966359 0.60999858 1.0879084e-38
0.34049514 -0.40977395 0.60999858 1.0879084e-38
0.34325391 -0.4095242 0.60999858 1.097128e-38
0.34602728 -0.40927312 0.60999864 1.097128e-38
0.34931582 -0.40952548 0.60999864 1.097128e-38
0.3530257 -0.40934205 0.6099987 1.097128e-38
0.35570964 -0.40945277 0.6099987 1.097128e-38
0.35869199 -0.40953863 0.6099987 1.097128e-38
0.36169121 -0.40962547 0.6099987 1.097128e-38
0.36441952 -0.40973827 0.60999876 1.097128e-38
0.36730653 -0.40948269 0.60999882 1.097128e-38
0.37020919 -0.40922564 0.60999882 1.097128e-38
0.37312764 -0.40968272 0.60999882 1.097128e-38
0.37606207 -0.40942484 0.60999882 1.097128e-38
0.37916046 -0.40951282 0.60999888 1.097128e-38
0.38197911 -0.4096272 0.60999888 1.097128e-38
0.38496211 -0.40936702 0.60999894 1.097128e-38
0.38781118 -0.4094812 0.60999888 1.097128e-38
0.39097756 -0.40956974 0.60999894 1.097128e-38
0.39401031 -0.4093073 0.60999894 1.097128e-38
0.39705992 -0.40977573 0.60999894 1.097128e-38
0.40012655 -0.40951234 0.60999906 1.097128e-38
0.40321028 -0.40924755 0.609999 1.097128e-38
0.40631139 -0.40971869 0.60999906 1.097128e-38
0.40942997 -0.409453 0.609999 1.097128e-38
0.4127233 -0.40954375 0.60999906 1.097128e-38
0.41571993 -0.40966177 0.60999918 1.097128e-38
0.41889173 -0.40939361 0.60999918 1.097128e-38
0.42208153 -0.40912396 0.60999918 1.097128e-38
0.42448527 -0.41004562 0.60999918 1.097128e-38
0.42690039 -0.40946823 0.60999918 1.097128e-38
0.43013602 -0.40919685 0.60999918 1.097128e-38
0.43339026 -0.40967935 0.60999918 1.097128e-38
0.43666315 -0.40940699 0.6099993 1.097128e-38
0.43995509 -0.40989405 0.60999918 1.097128e-38
0.44243586 -0.40930793 0.6099993 1.097128e-38
0.44492871 -0.40948293 0.6099993 1.097128e-38
0.44798946 -0.40961337 0.60999936 1.097128e-38
0.45162803 -0.40969855 0.60999942 1.097128e-38
0.45500714 -0.40942192 0.60999936 1.097128e-38
0.4575538 -0.4088271 0.60999936 1.097128e-38
0.46011299 -0.40977764 0.60999942 1.097128e-38
0.46354204 -0.40949917 0.60999942 1.097128e-38
0.46699134 -0.40921903 0.60999942 1.097128e-38
0.46959108 -0.41017777 0.60999948 1.097128e-38
0.47220379 -0.40957755 0.60999948 1.097128e-38
0.47570461 -0.40929559 0.60999954 1.097128e-38
0.47834325 -0.40947568 0.60999954 1.097128e-38
0.48099518 -0.40965712 0.60999954 1.097128e-38
0.48454869 -0.40937325 0.60999954 1.097128e-38
0.48722714 -0.4095549 0.60999966 1.097128e-38
0.48991913 -0.40973788 0.6099996 1.097128e-38
0.49352652 -0.40945208 0.60999966 1.097128e-38
0.49624574 -0.40883747 0.60999966 1.097128e-38
0.49897873 -0.40981984 0.60999966 1.097128e-38
0.50264132 -0.40953219 0.60999966 1.097128e-38
0.50540209 -0.40891299 0.60999972 1.097128e-38
0.50786823 -0.40952405 0.60999978 1.097128e-38
0.51189601 -0.40961346 0.60999978 1.097128e-38
0.51469946 -0.4089897 0.60999978 1.097128e-38
0.51720363 -0.40960565 0.60999978 1.097128e-38
0.52034688 -0.40936184 0.60999984 1.097128e-38
0.52319109 -0.40954888 0.60999978 1.097128e-38
0.52668434 -0.4096885 0.60999978 1.097128e-38
0.52987671 -0.40944305 0.60999984 1.097128e-38
0.53276539 -0.40963167 0.6099999 1.097128e-38
0.53566623 -0.40982199 0.6099999 1.097128e-38
0.53858221 -0.40918702 0.6099999 1.097128e-38
0.5415104 -0.40937656 0.6099999 1.097128e-38
0.54445398 -0.40956745 0.60999995 1.097128e-38
0.54741001 -0.40892684 0.60999995 1.097128e-38
0.5500508 -0.40955925 0.60999995 1.097128e-38
0.55336583 -0.40930873 0.61000001 1.097128e-38
0.55636591 -0.40950066 0.61000007 1.097128e-38
0.55937874 -0.40969428 0.61000001 1.097128e-38
0.56274486 -0.40944219 0.61000013 1.097128e-38
0.56544948 -0.41008356 0.61000007 1.097128e-38
0.56850761 -0.40943396 0.61000013 1.097128e-38
0.57157886 -0.40962863 0.61000013 1.097128e-38
0.57432288 -0.40942493 0.61000013 1.097128e-38
0.57750726 -0.40961805 0.61057347 1.097128e-38
0.58088583 -0.40936452 0.61000019 1.097128e-38
0.58401728 -0.40956163 0.61000025 1.097128e-38
0.58611399 -0.40940738 0.61000031 1.097128e-38
0.58927286 -0.40960526 0.61000019 1.097128e-38
0.59244543 -0.40894163 0.61000031 1.097128e-38
0.59528017 -0.40959692 0.61000031 1.097128e-38
0.59883934 -0.40933746 0.61000031 1.097128e-38
0.60098475 -0.41004866 0.61000031 1.097128e-38
0.60421687 -0.40938067 0.61000037 1.097128e-38
0.60746342 -0.40958071 0.61000037 1.097128e-38
0.61036444 -0.40937123 0.61000037 1.097128e-38
0.61400688 -0.40910804 0.61000043 1.097128e-38
0.61620265 -0.40982717 0.61000043 1.097128e-38
0.61987931 -0.40956405 0.61000043 1.097128e-38
0.62283391 -0.4093526 0.61000049 1.097128e-38
0.62505925 -0.4091934 0.61000043 1.097128e-38
0.6280387 -0.40986571 0.61000055 1.097128e-38
0.63178015 -0.40960047 0.61000049 1.097128e-38
0.63403559 -0.40944058 0.61000049 1.097128e-38
0.63743401 -0.40964589 0.61000061 1.097128e-38
0.64084798 -0.40895763 0.61000055 1.097128e-38
0.64313418 -0.40969113 0.61000061 1.097128e-38
0.64696282 -0.40942225 0.61000061 1.097128e-38
0.65003979 -0.40920609 0.61000073 1.097128e-38
0.65235752 -0.40904334 0.61000067 1.097128e-38
0.65468317 -0.40978333 0.61000067 1.097128e-38
0.65857786 -0.40951237 0.61000067 1.097128e-38
0.66170818 -0.40929466 0.61000073 1.097128e-38
0.66406608 -0.4091306 0.61000073 1.097128e-38
0.66643214 -0.40987712 0.61000079 1.097128e-38
0.72578186 -0.40959051 0.61000115 1.1063476e-38
0.72836655 -0.40941924 0.61000127 1.1063476e-38
0.73096073 -0.40924746 0.61000121 1.1063476e-38
0.73356432 -0.41003078 0.61000127 1.1063476e-38
0.73617744 -0.40985948 0.61000121 1.1063476e-38
0.73880005 -0.40968749 0.61000127 1.1063476e-38
0.74143219 -0.4095149 0.61000127 1.1063476e-38
0.74495786 -0.40928373 0.61000133 1.1063476e-38
0.74938673 -0.40899327 0.61000133 1.1063476e-38
0.75205779 -0.40978631 0.61000133 1.1063476e-38
0.75473863 -0.40961224 0.61000139 1.1063476e-38
0.75742948 -0.40943763 0.61000139 1.1063476e-38
0.76013023 -0.40926236 0.61000139 1.1063476e-38
0.76284087 -0.40908635 0.61000144 1.1063476e-38
0.76556182 -0.40988693 0.61000139 1.1063476e-38
0.76829267 -0.40971148 0.6100015 1.1063476e-38
0.7719509 -0.40947643 0.6100015 1.1063476e-38
0.77654684 -0.40918124 0.6100015 1.1063476e-38
0.77931887 -0.40998942 0.6100015 1.1063476e-38
0.78210127 -0.40981257 0.61000156 1.1063476e-38
0.78489417 -0.40963498 0.61000156 1.1063476e-38
0.78769755 -0.40945679 0.61000162 1.1063476e-38
0.79051155 -0.40927786 0.61000156 1.1063476e-38
0.79333621 -0.40909827 0.61000162 1.1063476e-38
0.79617161 -0.40991551 0.61000162 1.1063476e-38
0.79901773 -0.40973645 0.61000168 1.1063476e-38
0.80187464 -0.40955675 0.61000174 1.1063476e-38
0.80474252 -0.40937626 0.61000174 1.1063476e-38
0.8076213 -0.40919518 0.61000174 1.1063476e-38
0.81051123 -0.40901342 0.61000168 1.1063476e-38
0.81341207 -0.4098399 0.61000174 1.1063476e-38
0.81632423 -0.40965867 0.61000174 1.1063476e-38
0.81924742 -0.4094767 0.6100018 1.1063476e-38
0.822182 -0.40929401 0.61000186 1.1063476e-38
0.82512784 -0.40911064 0.61000186 1.1063476e-38
0.82808524 -0.40994534 0.6100018 1.1063476e-38
0.83105391 -0.4097625 0.61000192 1.1063476e-38
0.83403426 -0.40957898 0.61000186 1.1063476e-38
0.83702624 -0.40939474 0.61000192 1.1063476e-38
0.84002972 -0.40920979 0.61000198 1.1063476e-38
0.84304512 -0.40902412 0.61000192 1.1063476e-38
0.84607226 -0.40986842 0.61000198 1.1063476e-38
0.84911132 -0.40968332 0.61000198 1.1063476e-38
0.85216236 -0.4094975 0.61000192 1.1063476e-38
0.85522527 -0.40931088 0.6100021 1.1063476e-38
0.85830039 -0.4091236 0.61000204 1.1063476e-38
0.86138767 -0.40997642 0.6100021 1.1063476e-38
0.86448717 -0.40978968 0.61000216 1.1063476e-38
0.86759901 -0.40960222 0.61000216 1.1063476e-38
0.33162943 -0.40656149 0.60999864 1.0879084e-38
0.33488482 -0.40648431 0.60999858 1.0879084e-38
0.33775085 -0.40656024 0.60999858 1.0879084e-38
0.34063274 -0.4066371 0.60999858 1.0879084e-38
0.34325391 -0.40674019 0.60999858 1.0879084e-38
0.34602728 -0.40648171 0.60999864 1.0879084e-38
0.34951568 -0.4065071 0.60999864 1.097128e-38
0.35302567 -0.40653199 0.6099987 1.097128e-38
0.35585129 -0.4062705 0.6099987 1.097128e-38
0.35854957 -0.40637374 0.6099987 1.097128e-38
0.36154804 -0.40645114 0.6099987 1.097128e-38
0.36456347 -0.40652943 0.60999882 1.097128e-38
0.36730653 -0.40663463 0.60999876 1.097128e-38
0.37020922 -0.40636986 0.60999882 1.097128e-38
0.37298131 -0.40647468 0.60999882 1.097128e-38
0.37606207 -0.40655345 0.60999882 1.097128e-38
0.37901253 -0.40628636 0.60999888 1.097128e-38
0.38197911 -0.40674001 0.60999888 1.097128e-38
0.38496211 -0.40647197 0.60999894 1.097128e-38
0.38796157 -0.40620244 0.60999894 1.097128e-38
0.39097756 -0.40665865 0.60999894 1.097128e-38
0.39401034 -0.4063881 0.60999894 1.097128e-38
0.39705992 -0.40684843 0.60999894 1.097128e-38
0.40012655 -0.4065769 0.60999906 1.097128e-38
0.40321031 -0.40630388 0.609999 1.097128e-38
0.40631139 -0.40676677 0.60999906 1.097128e-38
0.40942997 -0.40649277 0.609999 1.097128e-38
0.41256607 -0.40621722 0.60999906 1.097128e-38
0.41571993 -0.40668482 0.60999918 1.097128e-38
0.41889173 -0.40640819 0.60999918 1.097128e-38
0.42208153 -0.40613005 0.60999918 1.097128e-38
0.42448527 -0.4070453 0.60999918 1.097128e-38
0.42690039 -0.40646148 0.60999918 1.097128e-38
0.43013602 -0.40618148 0.60999918 1.097128e-38
0.43339026 -0.40665531 0.60999918 1.097128e-38
0.43666318 -0.40637428 0.6099993 1.097128e-38
0.43995509 -0.40685251 0.60999918 1.097128e-38
0.44243586 -0.4062598 0.6099993 1.097128e-38
0.44492874 -0.40642816 0.6099993 1.097128e-38
0.44826859 -0.40691003 0.60999936 1.097128e-38
0.45162803 -0.40662599 0.60999942 1.097128e-38
0.45500714 -0.40634033 0.60999936 1.097128e-38
0.4575538 -0.40651083 0.60999936 1.097128e-38
0.46011299 -0.40668243 0.60999942 1.097128e-38
0.46354204 -0.4063949 0.60999942 1.097128e-38
0.46699131 -0.40610555 0.60999942 1.097128e-38
0.46959108 -0.40705734 0.60999948 1.097128e-38
0.47220379 -0.40645021 0.60999948 1.097128e-38
0.47570461 -0.40615886 0.60999948 1.097128e-38
0.47834325 -0.4071179 0.60999954 1.097128e-38
0.48099515 -0.40650636 0.60999948 1.097128e-38
0.48454869 -0.40621302 0.60999954 1.097128e-38
0.48722714 -0.40717936 0.60999966 1.097128e-38
0.48991913 -0.40656334 0.6099996 1.097128e-38
0.49352652 -0.40626794 0.60999966 1.097128e-38
0.49624574 -0.40644389 0.60999966 1.097128e-38
0.49897873 -0.40662116 0.60999966 1.097128e-38
0.50264126 -0.40632379 0.60999966 1.097128e-38
0.50540209 -0.40650117 0.60999972 1.097128e-38
0.50817716 -0.40667996 0.60999978 1.097128e-38
0.51189601 -0.40638041 0.60999978 1.097128e-38
0.51469946 -0.40655929 0.60999978 1.097128e-38
0.51751739 -0.40673959 0.60999978 1.097128e-38
0.52034688 -0.40610629 0.60999984 1.097128e-38
0.52287441 -0.40671912 0.60999984 1.097128e-38
0.52700299 -0.40680018 0.60999978 1.097128e-38
0.52987671 -0.40616211 0.60999984 1.097128e-38
0.53276539 -0.40634307 0.6099999 1.097128e-38
0.53566623 -0.40652564 0.6099999 1.097128e-38
0.53890687 -0.40626994 0.60999995 1.097128e-38
0.5415104 -0.4068926 0.6099999 1.097128e-38
0.54445404 -0.40624774 0.60999995 1.097128e-38
0.54741001 -0.40643114 0.60999995 1.097128e-38
0.55038166 -0.40661597 0.61000001 1.097128e-38
0.55336583 -0.40596524 0.61000001 1.097128e-38
0.55603188 -0.40659437 0.61000001 1.097128e-38
0.55937874 -0.40633482 0.61000001 1.097128e-38
0.56240761 -0.40652049 0.61000013 1.097128e-38
0.56544948 -0.40670791 0.61000007 1.097128e-38
0.56884813 -0.40644661 0.61000013 1.097128e-38
0.57157886 -0.40708464 0.61000013 1.097128e-38
0.57466674 -0.40642458 0.61000013 1.097128e-38
0.57776785 -0.40661287 0.61000025 1.097128e-38
0.58053863 -0.40640166 0.61000019 1.097128e-38
0.58401728 -0.40613651 0.61000025 1.097128e-38
0.58611399 -0.40683436 0.61000031 1.097128e-38
0.58962458 -0.40656915 0.61000019 1.097128e-38
0.59244543 -0.40635598 0.61000031 1.097128e-38
0.59563535 -0.40654734 0.61000031 1.097128e-38
0.59883934 -0.40587291 0.61000031 1.097128e-38
0.60098475 -0.40657839 0.61000031 1.097128e-38
0.60457683 -0.40630934 0.61000037 1.097128e-38
0.60746342 -0.40696505 0.61000037 1.097128e-38
0.61072797 -0.40628612 0.61000037 1.097128e-38
0.61400688 -0.40647936 0.61000043 1.097128e-38
0.61620265 -0.40631637 0.61000043 1.097128e-38
0.61951089 -0.40651041 0.61000043 1.097128e-38
0.62283391 -0.40670627 0.61000049 1.097128e-38
0.62505925 -0.4065426 0.61000043 1.097128e-38
0.62841213 -0.40673923 0.61000055 1.097128e-38
0.63178015 -0.40604821 0.61000049 1.097128e-38
0.63403559 -0.40677187 0.61000049 1.097128e-38
0.63781244 -0.40649652 0.61000061 1.097128e-38
0.64084798 -0.40627533 0.61000055 1.097128e-38
0.64313418 -0.40610862 0.61000061 1.097128e-38
0.64619547 -0.4067831 0.61000061 1.097128e-38
0.65003979 -0.40650547 0.61000073 1.097128e-38
0.65235752 -0.40633804 0.61000067 1.097128e-38
0.65468317 -0.40617007 0.61000067 1.097128e-38
0.65779728 -0.40685058 0.61000067 1.097128e-38
0.66170818 -0.40747869 0.61000073 1.097128e-38
0.72836655 -0.40656215 0.61000127 1.1063476e-38
0.73096073 -0.40638518 0.61000121 1.1063476e-38
0.73356432 -0.4062075 0.61000127 1.1063476e-38
0.73617744 -0.40698677 0.61000121 1.1063476e-38
0.73880005 -0.40680957 0.61000127 1.1063476e-38
0.74143219 -0.40663174 0.61000127 1.1063476e-38
0.74584168 -0.40633377 0.61000133 1.1063476e-38
0.74938673 -0.40609425 0.61000133 1.1063476e-38
0.75205779 -0.40688193 0.61000133 1.1063476e-38
0.75473863 -0.40670249 0.61000139 1.1063476e-38
0.75742948 -0.40652251 0.61000139 1.1063476e-38
0.76013023 -0.40634185 0.61000139 1.1063476e-38
0.76284087 -0.40616041 0.61000144 1.1063476e-38
0.76556182 -0.40597847 0.61000139 1.1063476e-38
0.76829267 -0.40677464 0.6100015 1.1063476e-38
0.77286798 -0.40647158 0.6100015 1.1063476e-38
0.77654684 -0.40622795 0.6100015 1.1063476e-38
0.77931887 -0.4060443 0.6100015 1.1063476e-38
0.78210127 -0.40684816 0.61000156 1.1063476e-38
0.78489417 -0.40666503 0.61000156 1.1063476e-38
0.78769755 -0.40648118 0.61000162 1.1063476e-38
0.79051155 -0.40629667 0.61000156 1.1063476e-38
0.79333621 -0.40611145 0.61000162 1.1063476e-38
0.79617161 -0.40692303 0.61000162 1.1063476e-38
0.79901773 -0.40673828 0.61000168 1.1063476e-38
0.80187464 -0.40655285 0.61000174 1.1063476e-38
0.80474252 -0.40636671 0.61000174 1.1063476e-38
0.8076213 -0.40617985 0.61000174 1.1063476e-38
0.81051123 -0.40599233 0.61000168 1.1063476e-38
0.81341207 -0.40681297 0.61000174 1.1063476e-38
0.81632423 -0.40662593 0.61000174 1.1063476e-38
0.81924742 -0.40643811 0.6100018 1.1063476e-38
0.822182 -0.40624961 0.61000186 1.1063476e-38
0.82512784 -0.40606034 0.61000186 1.1063476e-38
0.82808524 -0.40688914 0.6100018 1.1063476e-38
0.83105391 -0.40670037 0.61000192 1.1063476e-38
0.83403426 -0.40651089 0.61000186 1.1063476e-38
0.83702624 -0.40632072 0.61000192 1.1063476e-38
0.84002972 -0.40612972 0.61000198 1.1063476e-38
0.84304512 -0.40696675 0.61000192 1.1063476e-38
0.84607226 -0.40677628 0.61000198 1.1063476e-38
0.84911132 -0.4065851 0.61000198 1.1063476e-38
0.85216236 -0.4063932 0.61000192 1.1063476e-38
0.85522527 -0.40620047 0.6100021 1.1063476e-38
0.85830039 -0.4070459 0.61000204 1.1063476e-38
0.86138767 -0.40685371 0.6100021 1.1063476e-38
0.86448717 -0.4066608 0.61000216 1.1063476e-38
0.86759901 -0.40646708 0.61000216 1.1063476e-38
0.33143634 -0.40356526 0.60999864 1.0879084e-38
0.33502096 -0.4033643 0.60999858 1.0879084e-38
0.337614 -0.40345818 0.60999858 1.0879084e-38
0.34049511 -0.40352595 0.60999858 1.0879084e-38
0.34339222 -0.40359464 0.60999858 1.0879084e-38
0.34602731 -0.40369028 0.60999858 1.0879084e-38
0.34971571 -0.40348688 0.60999864 1.0879084e-38
0.3530257 -0.40372193 0.6099987 1.097128e-38
0.35585129 -0.40345296 0.6099987 1.097128e-38
0.35869199 -0.40318254 0.6099987 1.097128e-38
0.36154801 -0.4036184 0.6099987 1.097128e-38
0.36441952 -0.40334696 0.60999882 1.097128e-38
0.36730653 -0.40378657 0.60999882 1.097128e-38
0.37020919 -0.40351412 0.60999882 1.097128e-38
0.37312764 -0.40324014 0.60999888 1.097128e-38
0.37606207 -0.40368208 0.60999882 1.097128e-38
0.37901253 -0.4034071 0.60999888 1.097128e-38
0.38197911 -0.40385291 0.60999888 1.097128e-38
0.38496214 -0.40357691 0.60999894 1.097128e-38
0.38796157 -0.40329936 0.60999894 1.097128e-38
0.39097756 -0.40374756 0.60999894 1.097128e-38
0.39401034 -0.40346894 0.60999894 1.097128e-38
0.39721283 -0.403541 0.60999894 1.097128e-38
0.40012658 -0.40364146 0.60999906 1.097128e-38
0.40321028 -0.40336019 0.609999 1.097128e-38
0.40615588 -0.40346026 0.60999906 1.097128e-38
0.40942997 -0.40353256 0.609999 1.097128e-38
0.41256607 -0.40324861 0.60999906 1.097128e-38
0.41571993 -0.40370783 0.60999918 1.097128e-38
0.41889173 -0.40342277 0.60999918 1.097128e-38
0.42208153 -0.4031361 0.60999918 1.097128e-38
0.42448527 -0.40404499 0.60999918 1.097128e-38
0.42690039 -0.40345472 0.60999918 1.097128e-38
0.43013602 -0.40316612 0.60999918 1.097128e-38
0.43339026 -0.40363133 0.60999918 1.097128e-38
0.43666315 -0.40334153 0.6099993 1.097128e-38
0.43995509 -0.40381104 0.60999918 1.097128e-38
0.44243586 -0.40321168 0.6099993 1.097128e-38
0.44492871 -0.40337342 0.6099993 1.097128e-38
0.44826859 -0.40384638 0.60999936 1.097128e-38
0.45162803 -0.40355343 0.60999942 1.097128e-38
0.45500714 -0.40325877 0.60999936 1.097128e-38
0.4575538 -0.40419453 0.60999936 1.097128e-38
0.46011299 -0.40358728 0.60999942 1.097128e-38
0.46354204 -0.40329054 0.60999942 1.097128e-38
0.46727964 -0.40335608 0.60999942 1.097128e-38
0.46959108 -0.40393692 0.60999948 1.097128e-38
0.47220379 -0.40332282 0.60999948 1.097128e-38
0.47599721 -0.40338895 0.60999954 1.097128e-38
0.47834325 -0.40397418 0.60999954 1.097128e-38
0.48099518 -0.40335557 0.60999954 1.097128e-38
0.48484567 -0.40342227 0.60999954 1.097128e-38
0.48722714 -0.40401196 0.60999966 1.097128e-38
0.48991913 -0.40338877 0.6099996 1.097128e-38
0.49382806 -0.40345612 0.60999966 1.097128e-38
0.49624574 -0.40405038 0.60999966 1.097128e-38
0.49897873 -0.40342253 0.60999966 1.097128e-38
0.50294745 -0.40349054 0.60999966 1.097128e-38
0.50540209 -0.40408933 0.60999972 1.097128e-38
0.50817716 -0.40345681 0.60999978 1.097128e-38
0.51189601 -0.40314734 0.60999978 1.097128e-38
0.51469946 -0.40412891 0.60999978 1.097128e-38
0.51751739 -0.40349159 0.60999978 1.097128e-38
0.52034688 -0.40285075 0.60999984 1.097128e-38
0.52319109 -0.40383905 0.60999978 1.097128e-38
0.52700299 -0.4035269 0.60999978 1.097128e-38
0.52987671 -0.40288118 0.60999984 1.097128e-38
0.53244376 -0.40349206 0.6099999 1.097128e-38
0.53566623 -0.4032293 0.6099999 1.097128e-38
0.53858221 -0.40340418 0.6099999 1.097128e-38
0.5415104 -0.4035807 0.6099999 1.097128e-38
0.54478174 -0.40331611 0.60999995 1.097128e-38
0.54741001 -0.40393543 0.60999995 1.097128e-38
0.55038166 -0.40328044 0.61000001 1.097128e-38
0.55336583 -0.40345764 0.61000001 1.097128e-38
0.55636591 -0.40363625 0.61000001 1.097128e-38
0.55937874 -0.40297532 0.61000001 1.097128e-38
0.56207037 -0.40360108 0.61000013 1.097128e-38
0.56544948 -0.40333226 0.61000007 1.097128e-38
0.56850761 -0.40351164 0.61000013 1.097128e-38
0.57157886 -0.40369266 0.61000013 1.097128e-38
0.5750106 -0.40342197 0.61000013 1.097128e-38
0.57776785 -0.40405655 0.61000025 1.097128e-38
0.58088583 -0.40338594 0.61000019 1.097128e-38
0.58401728 -0.40356773 0.61000025 1.097128e-38
0.58611399 -0.4034037 0.61000031 1.097128e-38
0.58927286 -0.40358615 0.61000019 1.097128e-38
0.59244543 -0.40377033 0.61000031 1.097128e-38
0.5959906 -0.40349543 0.61000031 1.097128e-38
0.59883934 -0.40327448 0.61000031 1.097128e-38
0.60098475 -0.40310812 0.61000031 1.097128e-38
0.60385698 -0.4037548 0.61000037 1.097128e-38
0.60746342 -0.40347752 0.61000037 1.097128e-38
0.61109149 -0.40319863 0.61000037 1.097128e-38
0.61400688 -0.40385064 0.61000043 1.097128e-38
0.61620265 -0.4036833 0.61000043 1.097128e-38
0.61914247 -0.40345922 0.61000043 1.097128e-38
0.62283391 -0.40317783 0.61000049 1.097128e-38
0.62505925 -0.40389183 0.61000043 1.097128e-38
0.62878549 -0.40361023 0.61000055 1.097128e-38
0.63178015 -0.40338403 0.61000049 1.097128e-38
0.63403559 -0.40321359 0.61000049 1.097128e-38
0.63705558 -0.40387693 0.61000061 1.097128e-38
0.64084798 -0.40359297 0.61000055 1.097128e-38
0.64313418 -0.40342176 0.61000061 1.097128e-38
0.64657915 -0.40361309 0.61000061 1.097128e-38
0.65003979 -0.40290457 0.61000073 1.097128e-38
0.65235752 -0.40363276 0.61000067 1.097128e-38
0.65468317 -0.40346014 0.61000067 1.097128e-38
0.65701675 -0.40419179 0.61000067 1.097128e-38
0.72836655 -0.40370506 0.61000127 1.1063476e-38
0.73096073 -0.40352291 0.61000121 1.1063476e-38
0.73356432 -0.40334004 0.61000127 1.1063476e-38
0.73617744 -0.40315655 0.61000121 1.1063476e-38
0.73880005 -0.40393165 0.61000127 1.1063476e-38
0.74143219 -0.40374857 0.61000127 1.1063476e-38
0.74495786 -0.4035033 0.61000127 1.1063476e-38
0.74938673 -0.40319517 0.61000133 1.1063476e-38
0.75205779 -0.40397754 0.61000133 1.1063476e-38
0.75473863 -0.4037928 0.61000139 1.1063476e-38
0.75742948 -0.4036074 0.61000139 1.1063476e-38
0.76013023 -0.40342134 0.61000139 1.1063476e-38
0.76284087 -0.40323451 0.61000144 1.1063476e-38
0.76556182 -0.40304708 0.61000139 1.1063476e-38
0.76829267 -0.40383786 0.6100015 1.1063476e-38
0.7719509 -0.40358821 0.6100015 1.1063476e-38
0.77654684 -0.40327466 0.6100015 1.1063476e-38
0.77931887 -0.40308547 0.6100015 1.1063476e-38
0.78210127 -0.40388376 0.61000156 1.1063476e-38
0.78489417 -0.40369505 0.61000156 1.1063476e-38
0.78769755 -0.40350562 0.61000162 1.1063476e-38
0.79051155 -0.40331548 0.61000156 1.1063476e-38
0.79333621 -0.40312463 0.61000162 1.1063476e-38
0.79617161 -0.40393054 0.61000162 1.1063476e-38
0.79901773 -0.40374011 0.61000168 1.1063476e-38
0.80187464 -0.40354896 0.61000174 1.1063476e-38
0.80474252 -0.40335709 0.61000174 1.1063476e-38
0.8076213 -0.40316451 0.61000174 1.1063476e-38
0.81051123 -0.40397823 0.61000168 1.1063476e-38
0.81341207 -0.40378606 0.61000174 1.1063476e-38
0.81632423 -0.40359318 0.61000174 1.1063476e-38
0.81924742 -0.40339953 0.6100018 1.1063476e-38
0.822182 -0.40320516 0.61000186 1.1063476e-38
0.82512784 -0.40402681 0.61000186 1.1063476e-38
0.82808524 -0.40383291 0.6100018 1.1063476e-38
0.83105391 -0.40363818 0.61000192 1.1063476e-38
0.83403426 -0.4034428 0.61000186 1.1063476e-38
0.83702624 -0.40324664 0.61000192 1.1063476e-38
0.84002972 -0.40304965 0.61000198 1.1063476e-38
0.84304512 -0.40388066 0.61000192 1.1063476e-38
0.84607226 -0.40368414 0.61000198 1.1063476e-38
0.84911132 -0.40348691 0.61000198 1.1063476e-38
0.85216236 -0.4032889 0.61000192 1.1063476e-38
