# .PCD v0.7 - Point Cloud Data file format
VERSION 0.7
FIELDS x y z rgb
SIZE 4 4 4 4
TYPE F F F F
COUNT 1 1 1 1
WIDTH 975
HEIGHT 1
VIEWPOINT 0 0 0 1 0 0 0
POINTS 975
DATA ascii
0.85216236 -0.022494975 0.61000192 1.0879084e-38
0.85522532 -0.02258265 0.61000204 1.0879084e-38
0.85830039 -0.022670668 0.61000204 1.0879084e-38
0.86138773 -0.022759035 0.6100021 1.0879084e-38
0.86448729 -0.022847757 0.61000204 1.0879084e-38
0.86759907 -0.022936825 0.61000216 1.0879084e-38
0.33162948 -0.019296145 0.6099984 1.0786889e-38
0.33502102 -0.0194316 0.60999852 1.0786889e-38
0.33775088 -0.019540634 0.60999846 1.0786889e-38
0.34049517 -0.019650239 0.60999846 1.0786889e-38
0.34325394 -0.019760424 0.60999858 1.0786889e-38
0.3460274 -0.019871194 0.60999858 1.0786889e-38
0.34951568 -0.020010514 0.60999864 1.0786889e-38
0.3530257 -0.019448193 0.60999864 1.0786889e-38
0.35585132 -0.019559165 0.6099987 1.0786889e-38
0.35869205 -0.018964447 0.6099987 1.0786889e-38
0.3615481 -0.019074716 0.6099987 1.0786889e-38
0.36441958 -0.019185577 0.6099987 1.0786889e-38
0.36730659 -0.019297041 0.6099987 1.0786889e-38
0.37020925 -0.019409109 0.6099987 1.0786889e-38
0.37312773 -0.019521782 0.60999876 1.0786889e-38
0.3760621 -0.019635074 0.60999882 1.0786889e-38
0.37901253 -0.019748986 0.60999876 1.0786889e-38
0.38197917 -0.019863524 0.60999882 1.0786889e-38
0.3849622 -0.019978691 0.60999876 1.0786889e-38
0.3879616 -0.020094492 0.60999882 1.0786889e-38
0.39112887 -0.019779807 0.60999882 1.0786889e-38
0.39401034 -0.018868439 0.60999888 1.0786889e-38
0.39706001 -0.01898212 0.60999888 1.0786889e-38
0.40012661 -0.019096434 0.60999888 1.0786889e-38
0.4032104 -0.019211387 0.60999894 1.0786889e-38
0.40631151 -0.019326985 0.60999894 1.0786889e-38
0.40943006 -0.019443236 0.60999894 1.0786889e-38
0.41256613 -0.019560141 0.60999894 1.0786889e-38
0.41572005 -0.019677708 0.60999906 1.0786889e-38
0.41889185 -0.019795941 0.60999906 1.0786889e-38
0.42208159 -0.019914847 0.60999906 1.0786889e-38
0.42448533 -0.020004449 0.60999906 1.0786889e-38
0.42690045 -0.020094479 0.60999906 1.0786889e-38
0.43013608 -0.020215094 0.60999912 1.0786889e-38
0.43339032 -0.018824387 0.60999912 1.0786889e-38
0.43666327 -0.018942036 0.60999918 1.0786889e-38
0.43995517 -0.019060364 0.60999918 1.0786889e-38
0.44243598 -0.01914954 0.60999924 1.0786889e-38
0.4449288 -0.019239148 0.60999918 1.0786889e-38
0.44826868 -0.019359201 0.6099993 1.0786889e-38
0.45162815 -0.01947996 0.6099993 1.0786889e-38
0.45500714 -0.01960142 0.6099993 1.0786889e-38
0.45755392 -0.019692965 0.6099993 1.0786889e-38
0.46011305 -0.019784953 0.6099993 1.0786889e-38
0.46354207 -0.019908212 0.6099993 1.0786889e-38
0.46699139 -0.020032201 0.6099993 1.0786889e-38
0.4695912 -0.020125652 0.60999942 1.0786889e-38
0.47191295 -0.019948298 0.60999942 1.0786889e-38
0.4759973 -0.019048382 0.60999942 1.0786889e-38
0.47834337 -0.018868392 0.60999948 1.0786889e-38
0.48099518 -0.018960182 0.60999948 1.0786889e-38
0.48454875 -0.019083189 0.60999942 1.0786889e-38
0.48722726 -0.019175902 0.60999948 1.0786889e-38
0.48991919 -0.019269081 0.60999954 1.0786889e-38
0.49352664 -0.019393951 0.60999954 1.0786889e-38
0.49624586 -0.019488072 0.60999954 1.0786889e-38
0.49897879 -0.019582674 0.60999954 1.0786889e-38
0.50264138 -0.019709449 0.6099996 1.0786889e-38
0.50540221 -0.019805016 0.60999954 1.0786889e-38
0.50817716 -0.019901067 0.60999966 1.0786889e-38
0.51189607 -0.020029794 0.6099996 1.0786889e-38
0.51469958 -0.020126835 0.60999972 1.0786889e-38
0.51751745 -0.019412369 0.60999966 1.0786889e-38
0.520347 -0.019508425 0.60999972 1.0786889e-38
0.52350783 -0.019071458 0.60999972 1.0786889e-38
0.52700299 -0.018916069 0.60999978 1.0786889e-38
0.52987683 -0.019011717 0.60999978 1.0879084e-38
0.53276551 -0.019107861 0.60999978 1.0879084e-38
0.53566635 -0.01920441 0.60999978 1.0879084e-38
0.53858227 -0.019301463 0.6099999 1.0879084e-38
0.54151046 -0.019398922 0.60999984 1.0879084e-38
0.5444541 -0.019496895 0.60999984 1.0879084e-38
0.54741007 -0.01959528 0.60999984 1.0879084e-38
0.55038166 -0.019694183 0.6099999 1.0879084e-38
0.55336595 -0.019793507 0.6099999 1.0879084e-38
0.55636597 -0.019893356 0.60999995 1.0879084e-38
0.70669067 -0.019269019 0.61000103 1.0879084e-38
0.7104671 -0.019379625 0.61000103 1.0879084e-38
0.71299666 -0.019453714 0.61000103 1.0879084e-38
0.7155354 -0.01952807 0.61000109 1.0879084e-38
0.7180832 -0.019602692 0.61000109 1.0879084e-38
0.72064012 -0.019677581 0.61000109 1.0879084e-38
0.7244941 -0.019790463 0.61000109 1.0879084e-38
0.72836661 -0.019903885 0.61000115 1.0879084e-38
0.73096085 -0.019979868 0.61000115 1.0879084e-38
0.73356438 -0.019100301 0.61000121 1.0879084e-38
0.73617756 -0.019175097 0.61000115 1.0879084e-38
0.73880017 -0.019250166 0.61000115 1.0879084e-38
0.74143219 -0.01932551 0.61000127 1.0879084e-38
0.74539989 -0.019439077 0.61000121 1.0879084e-38
0.74938679 -0.019553196 0.61000127 1.0879084e-38
0.75205785 -0.01962965 0.61000133 1.0879084e-38
0.75473875 -0.019706383 0.61000133 1.0879084e-38
0.75742954 -0.019783407 0.61000133 1.0879084e-38
0.76013023 -0.019860707 0.61000139 1.0879084e-38
0.76284099 -0.019938298 0.61000139 1.0879084e-38
0.76556182 -0.019039059 0.61000139 1.0879084e-38
0.76829273 -0.019115409 0.61000144 1.0879084e-38
0.77240962 -0.019230507 0.61000144 1.0879084e-38
0.7765469 -0.019346172 0.6100015 1.0879084e-38
0.77931893 -0.019423677 0.61000139 1.0879084e-38
0.78210127 -0.019501463 0.61000156 1.0879084e-38
0.78489417 -0.019579545 0.61000156 1.0879084e-38
0.78769767 -0.019657925 0.6100015 1.0879084e-38
0.79051155 -0.019736595 0.61000156 1.0879084e-38
0.79333627 -0.01981557 0.6100015 1.0879084e-38
0.79617161 -0.019894838 0.61000162 1.0879084e-38
0.79901773 -0.019974411 0.61000168 1.0879084e-38
0.80187476 -0.019052994 0.61000162 1.0879084e-38
0.80474257 -0.019131262 0.61000168 1.0879084e-38
0.80762142 -0.019209832 0.61000168 1.0879084e-38
0.81051123 -0.0192887 0.61000168 1.0879084e-38
0.81341213 -0.01936787 0.61000174 1.0879084e-38
0.81632423 -0.019447349 0.61000174 1.0879084e-38
0.81924754 -0.019527134 0.61000174 1.0879084e-38
0.822182 -0.01960722 0.61000186 1.0879084e-38
0.82512796 -0.019687623 0.6100018 1.0879084e-38
0.82808524 -0.019768331 0.6100018 1.0879084e-38
0.83105403 -0.019849356 0.6100018 1.0879084e-38
0.83403426 -0.019930691 0.61000186 1.0879084e-38
0.83702624 -0.020012349 0.61000192 1.0879084e-38
0.8400299 -0.019067634 0.61000192 1.0879084e-38
0.84304512 -0.019147919 0.61000192 1.0879084e-38
0.84607232 -0.01922852 0.61000198 1.0879084e-38
0.84911144 -0.019309444 0.61000192 1.0879084e-38
0.85216236 -0.01939068 0.61000192 1.0879084e-38
0.85522532 -0.019472234 0.61000204 1.0879084e-38
0.85830039 -0.019554112 0.61000204 1.0879084e-38
0.86138773 -0.019636314 0.6100021 1.0879084e-38
0.86448729 -0.019718846 0.61000204 1.0879084e-38
0.86759907 -0.019801699 0.61000216 1.0879084e-38
0.33162951 -0.016543072 0.6099984 1.0786889e-38
0.33502102 -0.016669495 0.60999852 1.0786889e-38
0.33775088 -0.016771261 0.60999846 1.0786889e-38
0.34049517 -0.016873559 0.60999846 1.0786889e-38
0.34325397 -0.016976397 0.60999858 1.0786889e-38
0.34616643 -0.016665975 0.60999858 1.0786889e-38
0.34951571 -0.016509639 0.60999858 1.0786889e-38
0.35302567 -0.015935633 0.60999858 1.0786889e-38
0.35585129 -0.016037203 0.60999864 1.0786889e-38
0.35869205 -0.016139314 0.6099987 1.0786889e-38
0.3615481 -0.016241977 0.6099987 1.0786889e-38
0.36441958 -0.016345194 0.6099987 1.0786889e-38
0.36730659 -0.016448971 0.6099987 1.0786889e-38
0.37020922 -0.016553309 0.6099987 1.0786889e-38
0.37312776 -0.016658213 0.60999876 1.0786889e-38
0.3760621 -0.016763689 0.60999882 1.0786889e-38
0.37901253 -0.016869746 0.60999882 1.0786889e-38
0.38197917 -0.016976384 0.60999882 1.0786889e-38
0.3849622 -0.017083611 0.60999876 1.0786889e-38
0.38811195 -0.01676107 0.60999882 1.0786889e-38
0.39082643 -0.016275417 0.60999888 1.0786889e-38
0.39401034 -0.015949264 0.60999882 1.0786889e-38
0.39706004 -0.016054826 0.60999888 1.0786889e-38
0.40012661 -0.016160976 0.60999888 1.0786889e-38
0.4032104 -0.016267721 0.60999894 1.0786889e-38
0.40631148 -0.016375057 0.60999894 1.0786889e-38
0.40943003 -0.016483005 0.60999894 1.0786889e-38
0.41256613 -0.01659156 0.60999894 1.0786889e-38
0.41572005 -0.01670073 0.609999 1.0786889e-38
0.41889182 -0.016810518 0.60999906 1.0786889e-38
0.42208159 -0.01692093 0.60999906 1.0786889e-38
0.42448533 -0.017004132 0.60999906 1.0786889e-38
0.42690045 -0.017087732 0.60999906 1.0786889e-38
0.43013608 -0.017199732 0.60999906 1.0786889e-38
0.43339032 -0.015800361 0.60999912 1.0786889e-38
0.43666327 -0.015909292 0.60999918 1.0786889e-38
0.43995517 -0.016018856 0.60999918 1.0786889e-38
0.44243598 -0.016101427 0.60999924 1.0786889e-38
0.4449288 -0.016184397 0.60999918 1.0786889e-38
0.44826868 -0.016295558 0.6099993 1.0786889e-38
0.45162815 -0.016407371 0.6099993 1.0786889e-38
0.45500714 -0.016519833 0.6099993 1.0786889e-38
0.45755392 -0.016604599 0.6099993 1.0786889e-38
0.46011305 -0.016689774 0.6099993 1.0786889e-38
0.46354207 -0.016803902 0.60999936 1.0786889e-38
0.46699136 -0.016918706 0.6099993 1.0786889e-38
0.4695912 -0.017005235 0.60999942 1.0786889e-38
0.47220379 -0.017092189 0.60999942 1.0786889e-38
0.47541204 -0.016937384 0.60999942 1.0786889e-38
0.47834337 -0.016510602 0.60999948 1.0786889e-38
0.48129043 -0.016081205 0.60999948 1.0786889e-38
0.48454875 -0.015922945 0.60999942 1.0786889e-38
0.48722726 -0.016008526 0.60999948 1.0786889e-38
0.48991919 -0.016094537 0.60999954 1.0786889e-38
0.49352664 -0.0162098 0.60999954 1.0786889e-38
0.49624586 -0.016296683 0.60999954 1.0786889e-38
0.49897879 -0.016384009 0.60999954 1.0786889e-38
0.50264138 -0.016501032 0.60999954 1.0786889e-38
0.50540221 -0.016589247 0.60999954 1.0786889e-38
0.50817716 -0.016677909 0.60999966 1.0786889e-38
0.51189613 -0.016796736 0.60999966 1.0786889e-38
0.51469958 -0.016886309 0.60999972 1.0786889e-38
0.51751745 -0.016976349 0.60999966 1.0786889e-38
0.520347 -0.017066754 0.60999972 1.0786889e-38
0.52287447 -0.016875375 0.60999972 1.0786889e-38
0.52700305 -0.016461106 0.60999978 1.0786889e-38
0.52987683 -0.016551014 0.60999978 1.0786889e-38
0.53308707 -0.016102919 0.60999978 1.0786889e-38
0.53566635 -0.015908059 0.60999978 1.0879084e-38
0.53858227 -0.015997346 0.6099999 1.0879084e-38
0.54151046 -0.016087011 0.60999984 1.0879084e-38
0.5444541 -0.016177148 0.60999984 1.0879084e-38
0.54741007 -0.016267661 0.60999984 1.0879084e-38
0.55038166 -0.016358651 0.6099999 1.0879084e-38
0.55336595 -0.016450029 0.6099999 1.0879084e-38
0.55536383 -0.016511206 0.6099999 1.0879084e-38
0.70669067 -0.016455224 0.61000103 1.0879084e-38
0.7104671 -0.01655829 0.61000103 1.0879084e-38
0.71299666 -0.016627327 0.61000103 1.0879084e-38
0.7155354 -0.016696613 0.61000109 1.0879084e-38
0.7180832 -0.016766146 0.61000109 1.0879084e-38
0.72064012 -0.016835932 0.61000109 1.0879084e-38
0.72449416 -0.015991334 0.61000109 1.0879084e-38
0.72836661 -0.016094442 0.61000115 1.0879084e-38
0.73096085 -0.016163519 0.61000115 1.0879084e-38
0.73356438 -0.016232841 0.61000121 1.0879084e-38
0.73617756 -0.016302418 0.61000115 1.0879084e-38
0.73880017 -0.01637225 0.61000115 1.0879084e-38
0.74143219 -0.016442336 0.61000127 1.0879084e-38
0.74539989 -0.01654798 0.61000121 1.0879084e-38
0.74938679 -0.016654138 0.61000127 1.0879084e-38
0.75205785 -0.016725255 0.61000133 1.0879084e-38
0.75473875 -0.016796639 0.61000133 1.0879084e-38
0.75742954 -0.016868288 0.61000133 1.0879084e-38
0.76013023 -0.016940195 0.61000139 1.0879084e-38
0.76284099 -0.017012371 0.61000139 1.0879084e-38
0.76556182 -0.016107697 0.61000139 1.0879084e-38
0.76829273 -0.016178597 0.61000144 1.0879084e-38
0.77240962 -0.016285473 0.61000144 1.0879084e-38
0.7765469 -0.016392875 0.6100015 1.0879084e-38
0.77931893 -0.016464844 0.61000139 1.0879084e-38
0.78210127 -0.016537074 0.61000156 1.0879084e-38
0.78489417 -0.016609579 0.61000156 1.0879084e-38
0.78769767 -0.01668236 0.6100015 1.0879084e-38
0.79051155 -0.016755413 0.61000156 1.0879084e-38
0.79333627 -0.016828746 0.6100015 1.0879084e-38
0.79617161 -0.016902354 0.61000162 1.0879084e-38
0.79901773 -0.016976241 0.61000168 1.0879084e-38
0.80187476 -0.016049119 0.61000162 1.0879084e-38
0.80474257 -0.016121661 0.61000168 1.0879084e-38
0.80762142 -0.016194481 0.61000168 1.0879084e-38
0.81051123 -0.016267579 0.61000168 1.0879084e-38
0.81341213 -0.016340956 0.61000174 1.0879084e-38
0.81632423 -0.016414618 0.61000174 1.0879084e-38
0.81924754 -0.016488565 0.61000174 1.0879084e-38
0.822182 -0.016562792 0.61000186 1.0879084e-38
0.82512796 -0.01663731 0.6100018 1.0879084e-38
0.82808524 -0.016712114 0.6100018 1.0879084e-38
0.83105403 -0.01678721 0.6100018 1.0879084e-38
0.83403426 -0.016862595 0.61000186 1.0879084e-38
0.83702624 -0.016938277 0.61000192 1.0879084e-38
0.8400299 -0.015987564 0.61000192 1.0879084e-38
0.84304512 -0.016061828 0.61000192 1.0879084e-38
0.84607232 -0.016136386 0.61000198 1.0879084e-38
0.84911144 -0.016211238 0.61000192 1.0879084e-38
0.85216236 -0.016286381 0.61000192 1.0879084e-38
0.85522532 -0.016361818 0.61000204 1.0879084e-38
0.85830039 -0.016437557 0.61000204 1.0879084e-38
0.86138773 -0.016513593 0.6100021 1.0879084e-38
0.86448729 -0.016589936 0.61000204 1.0879084e-38
0.86759907 -0.016666573 0.61000216 1.0879084e-38
0.33162951 -0.013789994 0.6099984 1.0786889e-38
0.33502102 -0.013907389 0.60999852 1.0786889e-38
0.33775088 -0.014001884 0.60999846 1.0786889e-38
0.34063274 -0.013684863 0.60999846 1.0786889e-38
0.34325394 -0.013496363 0.60999852 1.0786889e-38
0.34588832 -0.013306471 0.60999858 1.0786889e-38
0.34951571 -0.013008766 0.60999852 1.0786889e-38
0.35302567 -0.013125589 0.60999858 1.0786889e-38
0.35585132 -0.013219635 0.60999864 1.0786889e-38
0.35869205 -0.013314182 0.6099987 1.0786889e-38
0.36154813 -0.013409238 0.6099987 1.0786889e-38
0.36441958 -0.013504811 0.6099987 1.0786889e-38
0.36730659 -0.0136009 0.6099987 1.0786889e-38
0.37020922 -0.013697509 0.6099987 1.0786889e-38
0.37312776 -0.013794642 0.60999876 1.0786889e-38
0.3760621 -0.013892306 0.60999882 1.0786889e-38
0.37901253 -0.013990507 0.60999882 1.0786889e-38
0.38197917 -0.014089245 0.60999882 1.0786889e-38
0.38511172 -0.013758945 0.60999882 1.0786889e-38
0.38781124 -0.013267179 0.60999882 1.0786889e-38
0.39097768 -0.012933191 0.60999888 1.0786889e-38
0.39401034 -0.01303009 0.60999882 1.0786889e-38
0.39706001 -0.013127533 0.60999888 1.0786889e-38
0.40012658 -0.013225517 0.60999888 1.0786889e-38
0.4032104 -0.013324049 0.60999894 1.0786889e-38
0.40631151 -0.013423132 0.60999894 1.0786889e-38
0.40943003 -0.013522775 0.60999894 1.0786889e-38
0.41256613 -0.01362298 0.60999894 1.0786889e-38
0.41572005 -0.013723752 0.60999906 1.0786889e-38
0.41889185 -0.013825096 0.60999906 1.0786889e-38
0.42208159 -0.013927013 0.60999906 1.0786889e-38
0.42448533 -0.014003817 0.60999906 1.0786889e-38
0.42690048 -0.014080985 0.60999906 1.0786889e-38
0.43013611 -0.014184369 0.60999912 1.0786889e-38
0.43366227 -0.013036481 0.60999912 1.0786889e-38
0.43666327 -0.012876551 0.60999918 1.0786889e-38
0.43995517 -0.012977349 0.60999918 1.0786889e-38
0.44243598 -0.013053315 0.60999924 1.0786889e-38
0.44492882 -0.013129647 0.60999918 1.0786889e-38
0.44826871 -0.013231916 0.60999924 1.0786889e-38
0.45162812 -0.013334783 0.6099993 1.0786889e-38
0.45500714 -0.013438249 0.6099993 1.0786889e-38
0.45755392 -0.013516232 0.6099993 1.0786889e-38
0.46011305 -0.013594593 0.6099993 1.0786889e-38
0.46354207 -0.01369959 0.6099993 1.0786889e-38
0.46699139 -0.013805212 0.6099993 1.0786889e-38
0.4695912 -0.013884818 0.60999942 1.0786889e-38
0.47220379 -0.013964816 0.60999942 1.0786889e-38
0.47570467 -0.014072013 0.60999942 1.0786889e-38
0.47834337 -0.014152812 0.60999948 1.0786889e-38
0.48069993 -0.013962209 0.60999948 1.0786889e-38
0.48454875 -0.013552763 0.60999942 1.0786889e-38
0.48722726 -0.01284115 0.60999948 1.0786889e-38
0.48991919 -0.012919994 0.60999954 1.0786889e-38
0.49352661 -0.013025652 0.60999954 1.0786889e-38
0.49624586 -0.013105294 0.60999954 1.0786889e-38
0.49897879 -0.013185342 0.60999954 1.0786889e-38
0.50264138 -0.013292614 0.60999954 1.0786889e-38
0.50540221 -0.013373477 0.60999954 1.0786889e-38
0.50817716 -0.013454752 0.60999966 1.0786889e-38
0.51189613 -0.013563676 0.60999966 1.0786889e-38
0.51469958 -0.013645787 0.60999972 1.0786889e-38
0.51751745 -0.013728321 0.60999966 1.0786889e-38
0.520347 -0.013811193 0.60999972 1.0786889e-38
0.52319115 -0.013894497 0.60999972 1.0786889e-38
0.52700305 -0.014006143 0.60999978 1.0786889e-38
0.52987683 -0.014090315 0.60999978 1.0786889e-38
0.53244382 -0.013891232 0.60999978 1.0786889e-38
0.53566635 -0.013435796 0.60999978 1.0786889e-38
0.53858227 -0.013519261 0.6099999 1.0879084e-38
0.54151046 -0.013603076 0.60999984 1.0879084e-38
0.5444541 -0.012857396 0.60999984 1.0879084e-38
0.54741007 -0.01294004 0.60999984 1.0879084e-38
0.55038166 -0.013023118 0.6099999 1.0879084e-38
0.55336595 -0.013106549 0.6099999 1.0879084e-38
0.55536383 -0.013999607 0.6099999 1.0879084e-38
0.7029323 -0.013546361 0.61000091 1.0879084e-38
0.70669073 -0.013641429 0.61000103 1.0879084e-38
0.7104671 -0.013736952 0.61000103 1.0879084e-38
0.71299666 -0.013800938 0.61000103 1.0879084e-38
0.7155354 -0.013865156 0.61000109 1.0879084e-38
0.7180832 -0.013929602 0.61000109 1.0879084e-38
0.72064012 -0.013994278 0.61000109 1.0879084e-38
0.7244941 -0.013141984 0.61000109 1.0879084e-38
0.72836661 -0.013237361 0.61000115 1.0879084e-38
0.73096085 -0.013301257 0.61000115 1.0879084e-38
0.73356438 -0.01336538 0.61000121 1.0879084e-38
0.73617756 -0.013429739 0.61000115 1.0879084e-38
0.73880017 -0.013494331 0.61000115 1.0879084e-38
0.74143219 -0.013559163 0.61000127 1.0879084e-38
0.74539989 -0.013656884 0.61000121 1.0879084e-38
0.74938679 -0.013755079 0.61000127 1.0879084e-38
0.75205785 -0.013820864 0.61000133 1.0879084e-38
0.75473875 -0.013886895 0.61000133 1.0879084e-38
0.75742954 -0.012981461 0.61000133 1.0879084e-38
0.76013023 -0.013046179 0.61000139 1.0879084e-38
0.76284099 -0.013111139 0.61000139 1.0879084e-38
0.76556182 -0.013176339 0.61000139 1.0879084e-38
0.76829273 -0.013241783 0.61000144 1.0879084e-38
0.77240962 -0.013340439 0.61000139 1.0879084e-38
0.7765469 -0.013439583 0.6100015 1.0879084e-38
0.77931893 -0.013506012 0.61000139 1.0879084e-38
0.78210127 -0.013572685 0.61000156 1.0879084e-38
0.78489417 -0.013639614 0.61000156 1.0879084e-38
0.78769767 -0.013706798 0.6100015 1.0879084e-38
0.79051155 -0.013774229 0.61000156 1.0879084e-38
0.79333627 -0.013841921 0.6100015 1.0879084e-38
0.79617161 -0.013909867 0.61000162 1.0879084e-38
0.79901773 -0.01397807 0.61000168 1.0879084e-38
0.80187476 -0.013045244 0.61000162 1.0879084e-38
0.80474257 -0.013112057 0.61000168 1.0879084e-38
0.80762142 -0.013179131 0.61000168 1.0879084e-38
0.81051123 -0.013246458 0.61000168 1.0879084e-38
0.81341213 -0.013314042 0.61000174 1.0879084e-38
0.81632423 -0.013381887 0.61000174 1.0879084e-38
0.81924754 -0.013449997 0.61000174 1.0879084e-38
0.822182 -0.013518363 0.61000186 1.0879084e-38
0.82512796 -0.013586998 0.6100018 1.0879084e-38
0.82808524 -0.013655897 0.6100018 1.0879084e-38
0.83105403 -0.013725065 0.6100018 1.0879084e-38
0.83403426 -0.013794497 0.61000186 1.0879084e-38
0.83702624 -0.013864204 0.61000192 1.0879084e-38
0.8400299 -0.013934184 0.61000192 1.0879084e-38
0.84304512 -0.014004435 0.61000192 1.0879084e-38
0.84607232 -0.013044247 0.61000198 1.0879084e-38
0.84911144 -0.013113031 0.61000192 1.0879084e-38
0.85216236 -0.013182081 0.61000192 1.0879084e-38
0.85522532 -0.013251405 0.61000204 1.0879084e-38
0.85830039 -0.013320999 0.61000204 1.0879084e-38
0.86138773 -0.013390871 0.6100021 1.0879084e-38
0.86448729 -0.013461024 0.61000204 1.0879084e-38
0.86759907 -0.013531448 0.61000216 1.0879084e-38
0.33182281 -0.010747737 0.6099984 1.0786889e-38
0.33502102 -0.010454756 0.60999852 1.0786889e-38
0.33775088 -0.010540168 0.60999846 1.0786889e-38
0.3403576 -0.010343869 0.60999846 1.0786889e-38
0.34325397 -0.010016328 0.60999858 1.0786889e-38
0.3460274 -0.010101251 0.60999858 1.0786889e-38
0.34951568 -0.010208066 0.60999858 1.0786889e-38
0.35302567 -0.010315542 0.60999864 1.0786889e-38
0.35585129 -0.010402065 0.60999864 1.0786889e-38
0.35869205 -0.010489048 0.6099987 1.0786889e-38
0.3615481 -0.010576501 0.6099987 1.0786889e-38
0.36441958 -0.010664428 0.6099987 1.0786889e-38
0.36730659 -0.010752828 0.6099987 1.0786889e-38
0.37020925 -0.010841709 0.6099987 1.0786889e-38
0.37312773 -0.010931072 0.60999876 1.0786889e-38
0.3760621 -0.011020922 0.60999882 1.0786889e-38
0.37901253 -0.011111268 0.60999882 1.0786889e-38
0.38197923 -0.010480322 0.60999876 1.0786889e-38
0.38481265 -0.010275492 0.6099987 1.0786889e-38
0.3879616 -0.0099337567 0.60999882 1.0786889e-38
0.39097768 -0.010022094 0.60999882 1.0786889e-38
0.39401034 -0.010110918 0.60999882 1.0786889e-38
0.39706004 -0.01020024 0.60999888 1.0786889e-38
0.40012658 -0.010290058 0.60999888 1.0786889e-38
0.4032104 -0.01038038 0.60999894 1.0786889e-38
0.40631151 -0.010471206 0.60999894 1.0786889e-38
0.40943006 -0.010562546 0.60999894 1.0786889e-38
0.41256613 -0.010654399 0.60999894 1.0786889e-38
0.41572005 -0.010746774 0.609999 1.0786889e-38
0.41889182 -0.010839673 0.60999906 1.0786889e-38
0.42208159 -0.010933096 0.60999906 1.0786889e-38
0.42448533 -0.0110035 0.60999906 1.0786889e-38
0.42690048 -0.011074237 0.60999906 1.0786889e-38
0.43013608 -0.011169007 0.60999906 1.0786889e-38
0.43339029 -0.010507768 0.60999912 1.0786889e-38
0.43666327 -0.0098438095 0.60999918 1.0786889e-38
0.43995517 -0.0099358428 0.60999918 1.0786889e-38
0.44243598 -0.0100052 0.60999924 1.0786889e-38
0.4449288 -0.010074896 0.60999918 1.0786889e-38
0.44826871 -0.010168273 0.60999924 1.0786889e-38
0.45162815 -0.010262195 0.6099993 1.0786889e-38
0.45500714 -0.010356664 0.6099993 1.0786889e-38
0.45755392 -0.010427866 0.6099993 1.0786889e-38
0.46011305 -0.010499413 0.6099993 1.0786889e-38
0.46354207 -0.010595281 0.60999936 1.0786889e-38
0.46699139 -0.010691715 0.6099993 1.0786889e-38
0.4695912 -0.0107644 0.60999942 1.0786889e-38
0.47220379 -0.010837441 0.60999942 1.0786889e-38
0.47570467 -0.010935319 0.60999942 1.0786889e-38
0.47834337 -0.01100909 0.60999948 1.0786889e-38
0.48099518 -0.011083229 0.60999948 1.0786889e-38
0.48454875 -0.011182578 0.60999942 1.0786889e-38
0.48722726 -0.010465618 0.60999948 1.0786889e-38
0.48991919 -0.010539087 0.60999954 1.0786889e-38
0.49352661 -0.0098415045 0.60999954 1.0786889e-38
0.49624586 -0.0099139065 0.60999954 1.0786889e-38
0.49897879 -0.0099866763 0.60999954 1.0786889e-38
0.50264138 -0.010084197 0.60999954 1.0786889e-38
0.50540221 -0.01015771 0.60999954 1.0786889e-38
0.50817716 -0.010231595 0.60999966 1.0786889e-38
0.51189613 -0.010330616 0.60999966 1.0786889e-38
0.51469958 -0.010405261 0.60999972 1.0786889e-38
0.51751745 -0.010480293 0.60999966 1.0786889e-38
0.520347 -0.010555632 0.60999972 1.0786889e-38
0.52319115 -0.010631363 0.60999972 1.0786889e-38
0.52700305 -0.010732859 0.60999978 1.0786889e-38
0.52987683 -0.010809377 0.60999978 1.0786889e-38
0.53276545 -0.010886292 0.60999978 1.0786889e-38
0.53566635 -0.010963531 0.60999978 1.0786889e-38
0.53858227 -0.011041174 0.6099999 1.0786889e-38
0.54151046 -0.011119142 0.60999984 1.0879084e-38
0.5444541 -0.010367583 0.60999984 1.0879084e-38
0.54741007 -0.010444324 0.60999984 1.0879084e-38
0.55038166 -0.010521468 0.6099999 1.0879084e-38
0.55336595 -0.010598939 0.6099999 1.0879084e-38
0.7029323 -0.010740072 0.61000091 1.0879084e-38
0.70669067 -0.010827634 0.61000103 1.0879084e-38
0.7104671 -0.0099751707 0.61000103 1.0879084e-38
0.71299666 -0.010032421 0.61000103 1.0879084e-38
0.7155354 -0.010089878 0.61000109 1.0879084e-38
0.7180832 -0.010147543 0.61000109 1.0879084e-38
0.72064012 -0.01020541 0.61000109 1.0879084e-38
0.7244941 -0.010292636 0.61000109 1.0879084e-38
0.72836661 -0.010380281 0.61000115 1.0879084e-38
0.73096085 -0.010438994 0.61000115 1.0879084e-38
0.73356438 -0.010497918 0.61000121 1.0879084e-38
0.73617756 -0.010557059 0.61000115 1.0879084e-38
0.73880017 -0.010616416 0.61000115 1.0879084e-38
0.74143219 -0.010675989 0.61000127 1.0879084e-38
0.74539989 -0.010765788 0.61000121 1.0879084e-38
0.74938679 -0.010856021 0.61000127 1.0879084e-38
0.75205785 -0.010916473 0.61000133 1.0879084e-38
0.75473875 -0.010977147 0.61000133 1.0879084e-38
0.75742954 -0.010066342 0.61000133 1.0879084e-38
0.76013023 -0.010125667 0.61000139 1.0879084e-38
0.76284099 -0.010185212 0.61000139 1.0879084e-38
0.76556182 -0.01024498 0.61000139 1.0879084e-38
0.76829273 -0.010304969 0.61000144 1.0879084e-38
0.77240962 -0.010395404 0.61000144 1.0879084e-38
0.7765469 -0.010486286 0.6100015 1.0879084e-38
0.77931893 -0.01054718 0.61000139 1.0879084e-38
0.78210127 -0.010608297 0.61000156 1.0879084e-38
0.78489417 -0.010669649 0.61000156 1.0879084e-38
0.78769767 -0.010731235 0.6100015 1.0879084e-38
0.79051155 -0.010793045 0.61000156 1.0879084e-38
0.79333627 -0.010855097 0.6100015 1.0879084e-38
0.79617161 -0.01091738 0.61000162 1.0879084e-38
0.79901773 -0.010979902 0.61000168 1.0879084e-38
0.80187476 -0.010041369 0.61000162 1.0879084e-38
0.80474257 -0.010102456 0.61000168 1.0879084e-38
0.80762142 -0.010163778 0.61000168 1.0879084e-38
0.81051123 -0.010225334 0.61000168 1.0879084e-38
0.81341213 -0.010287127 0.61000174 1.0879084e-38
0.81632423 -0.010349158 0.61000174 1.0879084e-38
0.81924754 -0.010411428 0.61000174 1.0879084e-38
0.822182 -0.010473935 0.61000186 1.0879084e-38
0.82512796 -0.010536687 0.6100018 1.0879084e-38
0.82808524 -0.01059968 0.6100018 1.0879084e-38
0.83105403 -0.010662919 0.6100018 1.0879084e-38
0.83403426 -0.010726402 0.61000186 1.0879084e-38
0.83702624 -0.010790132 0.61000192 1.0879084e-38
0.8400299 -0.010854114 0.61000192 1.0879084e-38
0.84304512 -0.010918342 0.61000192 1.0879084e-38
0.84607232 -0.009952113 0.61000198 1.0879084e-38
0.84911144 -0.010014825 0.61000192 1.0879084e-38
0.85216236 -0.010077782 0.61000192 1.0879084e-38
0.85522532 -0.010140989 0.61000204 1.0879084e-38
0.85830039 -0.010204446 0.61000204 1.0879084e-38
0.86138773 -0.010268152 0.6100021 1.0879084e-38
0.86448729 -0.010332111 0.61000204 1.0879084e-38
0.86759907 -0.010396324 0.61000216 1.0879084e-38
0.33146039 -0.0074184439 0.60999846 1.0786889e-38
0.33502102 -0.0070021246 0.60999852 1.0786889e-38
0.33775091 -0.0070784469 0.60999846 1.0786889e-38
0.34049517 -0.0071551711 0.60999846 1.0786889e-38
0.34325397 -0.0072322995 0.60999858 1.0786889e-38
0.3460274 -0.0073098382 0.60999858 1.0786889e-38
0.34951571 -0.0074073649 0.60999852 1.0786889e-38
0.3530257 -0.0075054951 0.60999858 1.0786889e-38
0.35585132 -0.0075844931 0.60999864 1.0786889e-38
0.35869205 -0.0076639131 0.6099987 1.0786889e-38
0.3615481 -0.0077437609 0.6099987 1.0786889e-38
0.36441958 -0.0078240428 0.60999864 1.0786889e-38
0.36730659 -0.007904755 0.6099987 1.0786889e-38
0.37020925 -0.0079859076 0.6099987 1.0786889e-38
0.37312776 -0.0080674998 0.60999876 1.0786889e-38
0.3762092 -0.0077226488 0.60999882 1.0786889e-38
0.3790125 -0.007512216 0.60999876 1.0786889e-38
0.3819792 -0.0068713981 0.60999882 1.0786889e-38
0.38496217 -0.0069508259 0.60999876 1.0786889e-38
0.38796157 -0.0070306892 0.60999882 1.0786889e-38
0.39097768 -0.0071109948 0.60999888 1.0786889e-38
0.39401031 -0.0071917451 0.60999882 1.0786889e-38
0.39706001 -0.0072729462 0.60999888 1.0786889e-38
0.40012661 -0.0073546018 0.60999888 1.0786889e-38
0.4032104 -0.0074367118 0.60999894 1.0786889e-38
0.40631148 -0.007519281 0.60999894 1.0786889e-38
0.40943003 -0.0076023168 0.60999894 1.0786889e-38
0.41256613 -0.007685821 0.60999894 1.0786889e-38
0.41572005 -0.0077697975 0.60999906 1.0786889e-38
0.41889182 -0.0078542512 0.60999906 1.0786889e-38
0.42208159 -0.0079391822 0.60999906 1.0786889e-38
0.42448533 -0.0080031846 0.60999906 1.0786889e-38
0.42690045 -0.0080674924 0.60999906 1.0786889e-38
0.43013611 -0.0081536453 0.60999906 1.0786889e-38
0.43311834 -0.0079808682 0.60999912 1.0786889e-38
0.43666327 -0.0068110679 0.60999918 1.0786889e-38
0.43995517 -0.0068943365 0.60999918 1.0786889e-38
0.44243598 -0.0069570877 0.60999924 1.0786889e-38
0.4449288 -0.0070201447 0.60999918 1.0786889e-38
0.44826871 -0.0071046283 0.60999924 1.0786889e-38
0.45162812 -0.007189604 0.6099993 1.0786889e-38
0.45500714 -0.007275077 0.6099993 1.0786889e-38
0.45755392 -0.0073394971 0.6099993 1.0786889e-38
0.46011305 -0.0074042305 0.6099993 1.0786889e-38
0.4635421 -0.0074909697 0.6099993 1.0786889e-38
0.46699136 -0.0075782188 0.6099993 1.0786889e-38
0.4695912 -0.0076439809 0.60999942 1.0786889e-38
0.47220379 -0.0077100662 0.60999942 1.0786889e-38
0.47570467 -0.0077986214 0.60999942 1.0786889e-38
0.47834337 -0.0078653665 0.60999948 1.0786889e-38
0.48099518 -0.007932445 0.60999948 1.0786889e-38
0.48454875 -0.0080223326 0.60999942 1.0786889e-38
0.48722726 -0.00809009 0.60999948 1.0786889e-38
0.48991919 -0.0081581809 0.60999954 1.0786889e-38
0.49352661 -0.0074533941 0.60999954 1.0786889e-38
0.49624586 -0.0075203665 0.60999954 1.0786889e-38
0.49928308 -0.007061657 0.60999954 1.0786889e-38
0.50264138 -0.0068757809 0.6099996 1.0786889e-38
0.50540221 -0.0069419416 0.60999954 1.0786889e-38
0.50817716 -0.0070084385 0.60999966 1.0786889e-38
0.51189607 -0.0070975581 0.6099996 1.0786889e-38
0.51469958 -0.0071647391 0.60999972 1.0786889e-38
0.51751739 -0.0072322669 0.60999966 1.0786889e-38
0.520347 -0.0073000733 0.60999972 1.0786889e-38
0.52319115 -0.0073682312 0.60999972 1.0786889e-38
0.52700299 -0.0074595767 0.60999978 1.0786889e-38
0.52987683 -0.0075284438 0.60999978 1.0786889e-38
0.53276551 -0.0075976662 0.60999978 1.0786889e-38
0.53566635 -0.007667182 0.60999978 1.0786889e-38
0.53858227 -0.0077370573 0.6099999 1.0786889e-38
0.54151046 -0.0078072287 0.60999984 1.0786889e-38
0.5444541 -0.0078777689 0.60999984 1.0786889e-38
0.54741007 -0.0079486063 0.60999984 1.0879084e-38
0.55038166 -0.0080198161 0.6099999 1.0879084e-38
0.70043844 -0.0078806607 0.61000097 1.0879084e-38
0.7029323 -0.0079337833 0.61000091 1.0879084e-38
0.70669073 -0.0080138408 0.61000103 1.0879084e-38
0.7104671 -0.007153837 0.61000103 1.0879084e-38
0.71299666 -0.0072060358 0.61000103 1.0879084e-38
0.7155354 -0.0072584227 0.61000109 1.0879084e-38
0.7180832 -0.0073109977 0.61000109 1.0879084e-38
0.72064012 -0.0073637608 0.61000109 1.0879084e-38
0.7244941 -0.0074432911 0.61000109 1.0879084e-38
0.72836661 -0.0075232014 0.61000115 1.0879084e-38
0.73096085 -0.0075767338 0.61000115 1.0879084e-38
0.73356438 -0.00763046 0.61000121 1.0879084e-38
0.73617756 -0.0076843835 0.61000115 1.0879084e-38
0.73880017 -0.0077385008 0.61000115 1.0879084e-38
0.74143219 -0.0077928137 0.61000127 1.0879084e-38
0.74539989 -0.00787469 0.61000121 1.0879084e-38
0.74938679 -0.0069906088 0.61000127 1.0879084e-38
0.75205785 -0.0070439493 0.61000133 1.0879084e-38
0.75473875 -0.0070974873 0.61000133 1.0879084e-38
0.75742954 -0.0071512228 0.61000133 1.0879084e-38
0.76013023 -0.0072051538 0.61000139 1.0879084e-38
0.76284099 -0.0072592869 0.61000139 1.0879084e-38
0.76556182 -0.0073136212 0.61000139 1.0879084e-38
0.76829273 -0.0073681567 0.61000144 1.0879084e-38
0.77240962 -0.0074503706 0.61000144 1.0879084e-38
0.7765469 -0.0075329896 0.6100015 1.0879084e-38
0.77931893 -0.0075883484 0.61000139 1.0879084e-38
0.78210127 -0.0076439101 0.61000156 1.0879084e-38
0.78489417 -0.0076996833 0.61000156 1.0879084e-38
0.78769767 -0.0077556698 0.6100015 1.0879084e-38
0.79051155 -0.007811862 0.61000156 1.0879084e-38
0.79333627 -0.007868275 0.6100015 1.0879084e-38
0.79617161 -0.0079248929 0.61000162 1.0879084e-38
0.79901773 -0.0079817297 0.61000168 1.0879084e-38
0.80187476 -0.0070374925 0.61000162 1.0879084e-38
0.80474257 -0.0070928521 0.61000168 1.0879084e-38
0.80762142 -0.007148426 0.61000168 1.0879084e-38
0.81051123 -0.0072042104 0.61000168 1.0879084e-38
0.81341213 -0.0072602089 0.61000174 1.0879084e-38
0.81632423 -0.0073164254 0.61000174 1.0879084e-38
0.81924754 -0.007372858 0.61000174 1.0879084e-38
0.822182 -0.0074295048 0.61000186 1.0879084e-38
0.82512796 -0.007486375 0.6100018 1.0879084e-38
0.82808524 -0.0075434614 0.6100018 1.0879084e-38
0.83105403 -0.0076007713 0.6100018 1.0879084e-38
0.83403426 -0.0076583028 0.61000186 1.0879084e-38
0.83702624 -0.0077160597 0.61000192 1.0879084e-38
0.8400299 -0.0077740438 0.61000192 1.0879084e-38
0.84304512 -0.0078322515 0.61000192 1.0879084e-38
0.84607232 -0.0078906864 0.61000198 1.0879084e-38
0.84911144 -0.007949356 0.61000192 1.0879084e-38
0.85216236 -0.008008251 0.61000192 1.0879084e-38
0.85522532 -0.0080673788 0.61000204 1.0879084e-38
0.85830039 -0.0070878882 0.61000204 1.0879084e-38
0.86138773 -0.00714543 0.6100021 1.0879084e-38
0.86448729 -0.0072032018 0.61000204 1.0879084e-38
0.86759907 -0.0072611989 0.61000216 1.0879084e-38
0.33162948 -0.0041542319 0.6099984 1.0786889e-38
0.33502102 -0.0042400188 0.60999852 1.0786889e-38
0.33775088 -0.0043090722 0.60999846 1.0786889e-38
0.34049517 -0.0043784897 0.60999846 1.0786889e-38
0.34325397 -0.0044482723 0.60999858 1.0786889e-38
0.3460274 -0.004518426 0.60999858 1.0786889e-38
0.34951571 -0.0046066642 0.60999858 1.0786889e-38
0.35302567 -0.004695449 0.60999864 1.0786889e-38
0.35585132 -0.0047669243 0.60999864 1.0786889e-38
0.35869205 -0.0048387796 0.6099987 1.0786889e-38
0.3615481 -0.0049110232 0.6099987 1.0786889e-38
0.36441958 -0.0049836589 0.60999864 1.0786889e-38
0.36730659 -0.0050566853 0.6099987 1.0786889e-38
0.37035477 -0.0047051283 0.6099987 1.0786889e-38
0.37312773 -0.0044880374 0.60999876 1.0786889e-38
0.37591496 -0.0042693508 0.60999882 1.0786889e-38
0.37901253 -0.0039131683 0.60999876 1.0786889e-38
0.3819792 -0.003984259 0.60999882 1.0786889e-38
0.38496217 -0.0040557445 0.60999876 1.0786889e-38
0.3879616 -0.0041276221 0.60999882 1.0786889e-38
0.39097768 -0.0041998969 0.60999888 1.0786889e-38
0.39401031 -0.0042725722 0.60999882 1.0786889e-38
0.39706004 -0.0043456536 0.60999888 1.0786889e-38
0.40012658 -0.0044191433 0.60999888 1.0786889e-38
0.4032104 -0.0044930424 0.60999894 1.0786889e-38
0.40631148 -0.0045673549 0.60999894 1.0786889e-38
0.40943006 -0.0046420875 0.60999894 1.0786889e-38
0.41256613 -0.0047172406 0.60999894 1.0786889e-38
0.41572005 -0.0047928197 0.60999906 1.0786889e-38
0.41889185 -0.0048688273 0.60999906 1.0786889e-38
0.42208159 -0.0049452656 0.60999906 1.0786889e-38
0.42448533 -0.0050028674 0.60999906 1.0786889e-38
0.42690048 -0.0050607431 0.60999906 1.0786889e-38
0.43013611 -0.0051382827 0.60999912 1.0786889e-38
0.43339029 -0.0052162651 0.60999912 1.0786889e-38
0.43666327 -0.0037783259 0.60999918 1.0786889e-38
0.43995517 -0.0038528293 0.60999918 1.0786889e-38
0.44243598 -0.003908975 0.60999924 1.0786889e-38
0.44492882 -0.0039653941 0.60999918 1.0786889e-38
0.44826871 -0.0040409849 0.60999924 1.0786889e-38
0.45162815 -0.0041170162 0.6099993 1.0786889e-38
0.45500714 -0.0041934913 0.6099993 1.0786889e-38
0.45755392 -0.0042511309 0.6099993 1.0786889e-38
0.46011305 -0.0043090498 0.6099993 1.0786889e-38
0.4635421 -0.0043866588 0.6099993 1.0786889e-38
0.46699139 -0.0044647246 0.6099993 1.0786889e-38
0.4695912 -0.0045235632 0.60999942 1.0786889e-38
0.47220379 -0.0045826919 0.60999942 1.0786889e-38
0.47570467 -0.0046619256 0.60999942 1.0786889e-38
0.47834337 -0.0047216453 0.60999948 1.0786889e-38
0.48099518 -0.004781663 0.60999948 1.0786889e-38
0.48454875 -0.0048620892 0.60999942 1.0786889e-38
0.48722726 -0.0049227141 0.60999948 1.0786889e-38
0.48991919 -0.0049836379 0.60999954 1.0786889e-38
0.49352664 -0.0050652828 0.60999954 1.0786889e-38
0.49624586 -0.0051268246 0.60999954 1.0786889e-38
0.49867451 -0.0049150349 0.60999954 1.0786889e-38
0.50264138 -0.0044694683 0.60999954 1.0786889e-38
0.50540221 -0.0045301151 0.60999954 1.0786889e-38
0.50817716 -0.0045910701 0.60999966 1.0786889e-38
0.51189613 -0.0038644988 0.60999966 1.0786889e-38
0.51469958 -0.0039242152 0.60999972 1.0786889e-38
0.51751739 -0.0039842399 0.60999966 1.0786889e-38
0.520347 -0.0040445123 0.60999972 1.0786889e-38
0.52319115 -0.0041050967 0.60999972 1.0786889e-38
0.52700305 -0.0041862922 0.60999978 1.0786889e-38
0.52987683 -0.004247508 0.60999978 1.0786889e-38
0.53276551 -0.0043090396 0.60999978 1.0786889e-38
0.53566635 -0.004370831 0.60999978 1.0786889e-38
0.53858227 -0.0044329423 0.6099999 1.0786889e-38
0.54151046 -0.0044953162 0.60999984 1.0786889e-38
0.5444541 -0.0045580198 0.60999984 1.0786889e-38
0.54741007 -0.0046209861 0.60999984 1.0786889e-38
0.54938906 -0.0046631396 0.6099999 1.0786889e-38
0.69795352 -0.0040992666 0.61000091 1.0879084e-38
0.70043844 -0.0041455813 0.61000097 1.0879084e-38
0.7029323 -0.0041920636 0.61000091 1.0879084e-38
0.70669067 -0.0042621135 0.61000103 1.0879084e-38
0.7104671 -0.0043325005 0.61000103 1.0879084e-38
0.71299666 -0.0043796478 0.61000103 1.0879084e-38
0.7155354 -0.0044269655 0.61000109 1.0879084e-38
0.7180832 -0.0044744527 0.61000109 1.0879084e-38
0.72064012 -0.0045221094 0.61000109 1.0879084e-38
0.72449416 -0.0045939428 0.61000109 1.0879084e-38
0.72836661 -0.0046661198 0.61000115 1.0879084e-38
0.73096085 -0.0047144722 0.61000115 1.0879084e-38
0.73356438 -0.0047629979 0.61000121 1.0879084e-38
0.73617756 -0.0048117042 0.61000115 1.0879084e-38
0.73880017 -0.0048605846 0.61000115 1.0879084e-38
0.74143219 -0.004909642 0.61000127 1.0879084e-38
0.74539989 -0.0049835937 0.61000127 1.0879084e-38
0.74938679 -0.0040915515 0.61000127 1.0879084e-38
0.75205785 -0.0041395575 0.61000133 1.0879084e-38
0.75473875 -0.0041877404 0.61000133 1.0879084e-38
0.75742954 -0.004236104 0.61000133 1.0879084e-38
0.76013023 -0.0042846408 0.61000139 1.0879084e-38
0.76284099 -0.0043333601 0.61000139 1.0879084e-38
0.76556182 -0.004382262 0.61000139 1.0879084e-38
0.76829273 -0.0044313446 0.61000144 1.0879084e-38
0.77240962 -0.0045053363 0.61000144 1.0879084e-38
0.7765469 -0.0045796931 0.6100015 1.0879084e-38
0.77931893 -0.004629517 0.61000139 1.0879084e-38
0.78210127 -0.0046795215 0.61000156 1.0879084e-38
0.78489417 -0.004729718 0.61000156 1.0879084e-38
0.78769767 -0.0047801062 0.6100015 1.0879084e-38
0.79051155 -0.0048306789 0.61000156 1.0879084e-38
0.79333627 -0.004881449 0.6100015 1.0879084e-38
0.79617161 -0.0049324073 0.61000162 1.0879084e-38
0.79901773 -0.0049835593 0.61000168 1.0879084e-38
0.80187476 -0.0040336167 0.61000162 1.0879084e-38
0.80474257 -0.0040832497 0.61000168 1.0879084e-38
0.80762142 -0.0041330755 0.61000168 1.0879084e-38
0.81051123 -0.0041830894 0.61000168 1.0879084e-38
0.81341213 -0.0042332942 0.61000174 1.0879084e-38
0.81632423 -0.0042836955 0.61000174 1.0879084e-38
0.81924754 -0.0043342896 0.61000174 1.0879084e-38
0.822182 -0.0043850765 0.61000186 1.0879084e-38
0.82512796 -0.0044360636 0.6100018 1.0879084e-38
0.82808524 -0.0044872453 0.6100018 1.0879084e-38
0.83105403 -0.0045386264 0.6100018 1.0879084e-38
0.83403426 -0.0045902049 0.61000186 1.0879084e-38
0.83702624 -0.0046419874 0.61000192 1.0879084e-38
0.8400299 -0.0046939738 0.61000192 1.0879084e-38
0.84304512 -0.0047461586 0.61000192 1.0879084e-38
0.84607232 -0.0047985502 0.61000198 1.0879084e-38
0.84911144 -0.0048511503 0.61000192 1.0879084e-38
0.85216236 -0.0049039526 0.61000192 1.0879084e-38
0.85522532 -0.0049569635 0.61000204 1.0879084e-38
0.85830039 -0.0039713327 0.61000204 1.0879084e-38
0.86138773 -0.0040227082 0.6100021 1.0879084e-38
0.86448729 -0.0040742904 0.61000204 1.0879084e-38
0.86759907 -0.0041260738 0.61000216 1.0879084e-38
0.33162948 -0.0014011565 0.6099984 1.0786889e-38
0.33502102 -0.001477913 0.60999852 1.0786889e-38
0.33775088 -0.0015396974 0.60999846 1.0786889e-38
0.34049517 -0.0016018073 0.60999846 1.0786889e-38
0.34325394 -0.0016642446 0.60999852 1.0786889e-38
0.34602737 -0.0017270143 0.60999858 1.0786889e-38
0.34951571 -0.0018059639 0.60999864 1.0786889e-38
0.35302567 -0.0018854034 0.60999858 1.0786889e-38
0.35585129 -0.0019493541 0.60999864 1.0786889e-38
0.35869205 -0.0020136461 0.6099987 1.0786889e-38
0.36154813 -0.0020782854 0.6099987 1.0786889e-38
0.36456352 -0.0017201882 0.60999864 1.0786889e-38
0.36730659 -0.0014965968 0.60999864 1.0786889e-38
0.37006369 -0.0012713887 0.6099987 1.0786889e-38
0.37312773 -0.00090857456 0.60999876 1.0786889e-38
0.3760621 -0.00097107934 0.60999882 1.0786889e-38
0.37901253 -0.0010339282 0.60999876 1.0786889e-38
0.3819792 -0.0010971208 0.60999882 1.0786889e-38
0.3849622 -0.0011606631 0.60999876 1.0786889e-38
0.3879616 -0.0012245546 0.60999882 1.0786889e-38
0.39097765 -0.0012887991 0.60999882 1.0786889e-38
0.39401034 -0.0013533989 0.60999888 1.0786889e-38
0.39706004 -0.0014183605 0.60999888 1.0786889e-38
0.40012658 -0.0014836849 0.60999888 1.0786889e-38
0.4032104 -0.0015493734 0.60999894 1.0786889e-38
0.40631148 -0.0016154284 0.60999894 1.0786889e-38
0.40943006 -0.0016818577 0.60999894 1.0786889e-38
0.41256613 -0.0017486606 0.60999894 1.0786889e-38
0.41572005 -0.0018158415 0.60999906 1.0786889e-38
0.41889182 -0.0018834034 0.60999906 1.0786889e-38
0.42208159 -0.0019513485 0.60999906 1.0786889e-38
0.42448533 -0.0020025512 0.60999906 1.0786889e-38
0.42690048 -0.0020539961 0.60999906 1.0786889e-38
0.43013608 -0.0021229195 0.60999906 1.0786889e-38
0.43339032 -0.0021922369 0.60999912 1.0786889e-38
0.43693677 -0.0010035926 0.60999918 1.0786889e-38
0.43995517 -0.00081132166 0.60999918 1.0786889e-38
0.44243598 -0.00086086243 0.60999924 1.0786889e-38
0.44492882 -0.00091064395 0.60999918 1.0786889e-38
0.44826871 -0.00097734155 0.60999924 1.0786889e-38
0.45162812 -0.0010444284 0.60999924 1.0786889e-38
0.45500714 -0.001111906 0.6099993 1.0786889e-38
0.45755392 -0.0011627646 0.6099993 1.0786889e-38
0.46011305 -0.00121387 0.6099993 1.0786889e-38
0.4635421 -0.0012823483 0.6099993 1.0786889e-38
0.46699136 -0.0013512294 0.6099993 1.0786889e-38
0.4695912 -0.0014031464 0.60999942 1.0786889e-38
0.47220379 -0.0014553191 0.60999942 1.0786889e-38
0.47570467 -0.0015252307 0.60999942 1.0786889e-38
0.47834337 -0.0015779249 0.60999948 1.0786889e-38
0.48099524 -0.0016308827 0.60999942 1.0786889e-38
0.48454875 -0.0017018458 0.60999942 1.0786889e-38
0.48722726 -0.0017553382 0.60999948 1.0786889e-38
0.48991919 -0.001809095 0.60999954 1.0786889e-38
0.49352661 -0.0018811342 0.60999954 1.0786889e-38
0.49624586 -0.0019354364 0.60999954 1.0786889e-38
0.49897879 -0.0019900142 0.60999954 1.0786889e-38
0.50264138 -0.0020631538 0.60999954 1.0786889e-38
0.50540221 -0.0021182885 0.60999954 1.0786889e-38
0.50817716 -0.0021737018 0.60999966 1.0786889e-38
0.51189613 -0.0014397036 0.60999966 1.0786889e-38
0.51469958 -0.0014938209 0.60999972 1.0786889e-38
0.51751745 -0.0015482195 0.60999966 1.0786889e-38
0.520347 -0.0016028415 0.60999972 1.0786889e-38
0.52319115 -0.00084196217 0.60999972 1.0786889e-38
0.52700299 -0.00091300858 0.60999978 1.0786889e-38
0.52987683 -0.0009665722 0.60999978 1.0786889e-38
0.53276551 -0.001020412 0.60999978 1.0786889e-38
0.53566635 -0.0010744799 0.60999978 1.0786889e-38
0.53858227 -0.0011288268 0.6099999 1.0786889e-38
0.54151046 -0.0011834046 0.60999984 1.0786889e-38
0.5444541 -0.0012382693 0.60999984 1.0786889e-38
0.54741007 -0.0012933649 0.60999984 1.0786889e-38
0.69795352 -0.0013029203 0.61000091 1.0879084e-38
0.70043844 -0.0013442729 0.61000097 1.0879084e-38
0.7029323 -0.0013857745 0.61000091 1.0879084e-38
0.70669067 -0.0014483184 0.61000103 1.0879084e-38
0.7104671 -0.001511164 0.61000103 1.0879084e-38
0.71299666 -0.0015532598 0.61000103 1.0879084e-38
0.7155354 -0.0015955064 0.61000109 1.0879084e-38
0.7180832 -0.0016379058 0.61000109 1.0879084e-38
0.72064012 -0.001680458 0.61000109 1.0879084e-38
0.7244941 -0.0017445954 0.61000109 1.0879084e-38
0.72836661 -0.0018090382 0.61000115 1.0879084e-38
0.73096085 -0.0018522106 0.61000115 1.0879084e-38
0.73356438 -0.0018955376 0.61000121 1.0879084e-38
0.73617756 -0.00098146312 0.61000115 1.0879084e-38
0.73880017 -0.0010233624 0.61000115 1.0879084e-38
0.74143219 -0.0010654107 0.61000127 1.0879084e-38
0.74539989 -0.0011287979 0.61000121 1.0879084e-38
0.74938679 -0.0011924924 0.61000127 1.0879084e-38
0.75205785 -0.0012351656 0.61000133 1.0879084e-38
0.75473875 -0.0012779953 0.61000133 1.0879084e-38
0.75742954 -0.0013209842 0.61000133 1.0879084e-38
0.76013023 -0.0013641287 0.61000139 1.0879084e-38
0.76284099 -0.0014074352 0.61000139 1.0879084e-38
0.76556182 -0.0014509028 0.61000139 1.0879084e-38
0.76829273 -0.0014945325 0.61000144 1.0879084e-38
0.77240962 -0.0015603025 0.61000144 1.0879084e-38
0.7765469 -0.0016263975 0.6100015 1.0879084e-38
0.77931893 -0.0016706856 0.61000139 1.0879084e-38
0.78210127 -0.0017151339 0.61000156 1.0879084e-38
0.78489423 -0.0017597536 0.61000156 1.0879084e-38
0.78769767 -0.0018045418 0.6100015 1.0879084e-38
0.79051155 -0.0018494958 0.61000156 1.0879084e-38
0.79333627 -0.0018946249 0.6100015 1.0879084e-38
0.79617161 -0.0019399207 0.61000162 1.0879084e-38
0.79901773 -0.0019853897 0.61000168 1.0879084e-38
0.80187476 -0.001029741 0.61000162 1.0879084e-38
0.80474257 -0.0010736473 0.61000168 1.0879084e-38
0.80762142 -0.0011177231 0.61000168 1.0879084e-38
0.81051123 -0.0011619665 0.61000168 1.0879084e-38
0.81341213 -0.0012063794 0.61000174 1.0879084e-38
0.81632423 -0.0012509655 0.61000174 1.0879084e-38
0.81924754 -0.0012957212 0.61000174 1.0879084e-38
0.822182 -0.0013406482 0.61000186 1.0879084e-38
0.82512796 -0.0013857521 0.6100018 1.0879084e-38
0.82808524 -0.0014310274 0.6100018 1.0879084e-38
0.83105403 -0.0014764816 0.6100018 1.0879084e-38
0.83403426 -0.0015221089 0.61000186 1.0879084e-38
0.83702624 -0.0015679151 0.61000192 1.0879084e-38
0.8400299 -0.0016139038 0.61000192 1.0879084e-38
0.84304512 -0.0016600676 0.61000192 1.0879084e-38
0.84607232 -0.0017064139 0.61000198 1.0879084e-38
0.84911144 -0.0017529447 0.61000192 1.0879084e-38
0.85216236 -0.0017996542 0.61000192 1.0879084e-38
0.85522532 -0.00184655 0.61000204 1.0879084e-38
0.85830039 -0.0018936284 0.61000204 1.0879084e-38
0.86138773 -0.0019408949 0.6100021 1.0879084e-38
0.86448729 -0.0019883513 0.61000204 1.0879084e-38
0.86759907 -0.0020359904 0.61000216 1.0879084e-38
0.33162948 0.0013519187 0.6099984 1.0786889e-38
0.33502102 0.0012841928 0.60999852 1.0786889e-38
0.33775088 0.0012296769 0.60999846 1.0786889e-38
0.34049517 0.0011748741 0.60999846 1.0786889e-38
0.34325397 0.0011197822 0.60999858 1.0786889e-38
0.34602737 0.0010643983 0.60999858 1.0786889e-38
0.34951571 0.00099473598 0.60999852 1.0786889e-38
0.3530257 0.00092464266 0.60999858 1.0786889e-38
0.35585132 0.0015726077 0.6099987 1.0786889e-38
0.35869205 0.0015177708 0.6099987 1.0786889e-38
0.3615481 0.0014626371 0.6099987 1.0786889e-38
0.36427563 0.0016942136 0.60999864 1.0786889e-38
0.36730659 0.0020634918 0.6099987 1.0786889e-38
0.37020925 0.0020093909 0.6099987 1.0786889e-38
0.37312776 0.001954996 0.60999876 1.0786889e-38
0.3760621 0.0019003041 0.60999882 1.0786889e-38
0.37901253 0.0018453104 0.60999876 1.0786889e-38
0.3819792 0.0017900183 0.60999882 1.0786889e-38
0.38496217 0.0017344174 0.60999876 1.0786889e-38
0.3879616 0.0016785129 0.60999882 1.0786889e-38
0.39097768 0.0016222992 0.60999888 1.0786889e-38
0.39401037 0.0015657726 0.60999882 1.0786889e-38
0.39706001 0.001508933 0.60999888 1.0786889e-38
0.40012661 0.0014517736 0.60999888 1.0786889e-38
0.4032104 0.0013942965 0.60999894 1.0786889e-38
0.40631151 0.0013364977 0.60999894 1.0786889e-38
0.40943003 0.0012783725 0.60999894 1.0786889e-38
0.41256613 0.0012199203 0.60999894 1.0786889e-38
0.41572005 0.0011611367 0.60999906 1.0786889e-38
0.41889185 0.0011020196 0.60999906 1.0786889e-38
0.42208159 0.0010425677 0.60999906 1.0786889e-38
0.42448533 0.00099776592 0.60999906 1.0786889e-38
0.42690045 0.00095275091 0.60999906 1.0786889e-38
0.43013611 0.00089244312 0.60999912 1.0786889e-38
0.43339029 0.00083179073 0.60999912 1.0786889e-38
0.43638977 0.0010287967 0.60999918 1.0786889e-38
0.44023028 0.0019721482 0.60999918 1.0786889e-38
0.44243598 0.0021872502 0.60999924 1.0786889e-38
0.44492882 0.0021441062 0.60999918 1.0786889e-38
0.44826871 0.0020863018 0.60999924 1.0786889e-38
0.45162815 0.0020281603 0.6099993 1.0786889e-38
0.45500714 0.0019696788 0.6099993 1.0786889e-38
0.45755392 0.0019256016 0.6099993 1.0786889e-38
0.46011305 0.0018813107 0.6099993 1.0786889e-38
0.4635421 0.0018219627 0.6099993 1.0786889e-38
0.46699136 0.0017622658 0.6099993 1.0786889e-38
0.4695912 0.0017172704 0.60999942 1.0786889e-38
0.47220379 0.0016720551 0.60999942 1.0786889e-38
0.47570467 0.0016114642 0.60999942 1.0786889e-38
0.47834337 0.0015657963 0.60999948 1.0786889e-38
