# .PCD v0.7 - Point Cloud Data file format
VERSION 0.7
FIELDS x y z rgb
SIZE 4 4 4 4
TYPE F F F F
COUNT 1 1 1 1
WIDTH 985
HEIGHT 1
VIEWPOINT 0 0 0 1 0 0 0
POINTS 985
DATA ascii
0.52656031 -0.010068314 0.69785571 1.244641e-38
0.52970189 -0.0073488648 0.69785357 1.2446413e-38
0.53147125 -0.0063493121 0.69884908 1.3368739e-38
0.53307503 -0.0043692309 0.69756818 3.4131329e-39
0.53409421 -0.0033616405 0.69789624 2.8599577e-39
0.53605443 -0.0013682625 0.69699234 2.8599577e-39
0.53787184 -0.0003594365 0.69795132 2.9517932e-39
0.58904511 -0.00089317746 0.69859046 1.871499e-38
0.53932428 0.0011457233 0.69730842 2.9517932e-39
0.54124415 0.0026586195 0.69731402 2.9517932e-39
0.54270774 0.004174307 0.69666797 2.9517932e-39
0.54457527 0.0051936992 0.69758934 2.8599577e-39
0.54726905 0.0077449474 0.69745666 2.8599577e-39
0.54901838 0.0087728575 0.6985448 2.8599577e-39
0.57328606 0.006068293 0.69618529 8.7243721e-39
0.55084449 0.011081331 0.69746333 2.8599577e-39
0.5525862 0.011857837 0.69898981 2.8599577e-39
0.55356044 0.013918879 0.69692421 2.8599577e-39
0.55532408 0.014956674 0.69801831 2.8599577e-39
0.55675209 0.016512793 0.69746351 4.7957002e-39
0.5585382 0.016510945 0.69895506 8.5749517e-39
0.55921543 0.018596176 0.69727618 8.9433502e-39
0.56106889 0.019641226 0.69827777 1.0879084e-38
0.5625878 0.021212319 0.6976279 1.0233715e-38
0.56453204 0.022788905 0.69769984 1.0141519e-38
0.5664826 0.024370499 0.69777191 1.0141518e-38
0.56841731 0.025956973 0.69787133 9.7727368e-39
0.56984246 0.027548624 0.69736081 9.219563e-39
0.57171488 0.02861125 0.69837922 9.4961499e-39
0.57479256 0.031282712 0.69793415 9.1273674e-39
0.5779314 0.033970013 0.69743371 9.219563e-39
0.57997066 0.035588901 0.69745207 9.219563e-39
0.58307683 0.037757047 0.69785315 9.1273674e-39
0.5850457 0.038839638 0.69880342 9.0351717e-39
0.58684951 0.040484056 0.69789022 9.1273674e-39
0.58965617 0.042682927 0.69744754 9.0351717e-39
0.59164572 0.043776356 0.69839907 8.9429761e-39
0.53202653 -0.08133886 0.7006132 1.982206e-38
0.5354954 -0.081718042 0.69980741 1.982206e-38
0.52901751 -0.079625636 0.69959319 1.1616288e-38
0.52478558 -0.076155543 0.7002219 1.1708845e-38
0.52642351 -0.077219926 0.70136863 1.4105931e-38
0.52158827 -0.072901636 0.69950306 9.8649324e-39
0.52333689 -0.073698193 0.70090759 1.3737149e-38
0.55068803 -0.072066717 0.70139444 1.8991934e-38
0.5204612 -0.070304491 0.70051759 1.1247867e-38
0.52205724 -0.071279079 0.70137167 1.1893236e-38
0.51771867 -0.067080051 0.70021707 1.1801041e-38
0.52006859 -0.068075329 0.70154446 1.1801041e-38
0.55461067 -0.067701966 0.70140237 1.8807184e-38
0.55777746 -0.066484846 0.69990814 1.9821696e-38
0.51509655 -0.063775815 0.69993633 1.1801041e-38
0.51718658 -0.06434343 0.70126933 1.1801041e-38
0.56000233 -0.064234242 0.70085013 1.8254372e-38
0.51252627 -0.061619386 0.6992662 1.1247867e-38
0.51428688 -0.061656255 0.70062041 1.1247867e-38
0.51604891 -0.061693147 0.70197576 1.1247867e-38
0.50918794 -0.058313899 0.700086 1.0325911e-38
0.51125413 -0.059527554 0.70100683 1.0510302e-38
0.50611001 -0.055622425 0.69973755 1.1432258e-38
0.50794917 -0.056143463 0.70137399 1.0694693e-38
0.50312436 -0.051856142 0.70095557 1.3552758e-38
0.50486994 -0.053460408 0.70103759 1.3552758e-38
0.57432771 -0.051739089 0.70180321 4.7972066e-39
0.49994242 -0.048704747 0.70037997 1.26308e-38
0.50149399 -0.050273009 0.70071989 1.2630801e-38
0.49910372 -0.046247542 0.70080328 1.244713e-38
0.50004613 -0.043508604 0.70023537 1.1341144e-38
0.58313185 -0.044333272 0.7010904 4.7972066e-39
0.50162089 -0.040602963 0.70054269 8.4805462e-39
0.50289577 -0.037840113 0.70052105 1.0693964e-38
0.5895611 -0.03827126 0.70086312 4.889405e-39
0.50340801 -0.03553699 0.69930571 1.2815193e-38
0.50464821 -0.034526885 0.70092726 1.1616649e-38
0.50553459 -0.031866249 0.7001158 1.1708845e-38
0.50707412 -0.03111944 0.70174533 1.392154e-38
0.50673252 -0.028944887 0.69971198 1.3091779e-38
0.50844741 -0.028963713 0.70110512 1.4013373e-38
0.53750205 -0.028501861 0.7009325 8.7243721e-39
0.50924087 -0.026794033 0.70001352 1.4474352e-38
0.51142788 -0.025730364 0.70076942 1.3552396e-38
0.51216364 -0.023919504 0.69976234 1.4290321e-38
0.51451421 -0.022484982 0.70031118 1.3644952e-38
0.51707655 -0.021539152 0.70141822 1.2722996e-38
0.51763034 -0.019221943 0.69983613 1.3921177e-38
0.52035296 -0.018518509 0.70116293 1.2907025e-38
0.52088851 -0.016186476 0.69961041 1.4289954e-38
0.52324587 -0.015968051 0.70102942 1.2722994e-38
0.5253967 -0.015252788 0.70190161 1.1801041e-38
0.52413666 -0.013752948 0.69983941 1.4105571e-38
0.52659971 -0.012887493 0.70080245 1.2907388e-38
0.52718216 -0.010805581 0.69952953 1.4382518e-38
0.52934766 -0.010079971 0.70040452 1.3276171e-38
0.53148317 -0.0093514211 0.7013272 6.086062e-39
0.5308699 -0.0078469142 0.69964218 1.4013737e-38
0.53296614 -0.007111012 0.70062542 4.0585079e-39
0.53498566 -0.0063700862 0.70171613 3.4135084e-39
0.53561556 -0.0042650923 0.70039642 3.4135084e-39
0.53736019 -0.0033676066 0.7011106 3.4135084e-39
0.53688478 -0.0018563475 0.69923878 2.9517932e-39
0.53891122 -0.0011062282 0.70034075 3.2291129e-39
0.54089743 -0.00035401061 0.70150089 3.4135084e-39
0.54191095 0.0015342175 0.70019317 3.043993e-39
0.54401374 0.0026730355 0.70121682 2.8599577e-39
0.54497063 0.004187027 0.69998884 2.8599577e-39
0.54711092 0.0053317812 0.70097911 3.3213114e-39
0.54808819 0.0072424766 0.69973183 2.8599577e-39
0.55016732 0.0080068549 0.70081425 3.5979067e-39
0.55257428 0.008763656 0.70148897 3.874502e-39
0.5517801 0.010315052 0.70001096 3.874502e-39
0.55388492 0.010820381 0.70066261 3.874502e-39
0.55596799 0.011844269 0.70093703 3.874502e-39
0.55445927 0.013405269 0.69910967 3.874502e-39
0.5569182 0.014174633 0.69974428 4.4276659e-39
0.55941349 0.014427952 0.70117134 7.9295921e-39
0.57039315 0.013641624 0.70036548 1.4013736e-38
0.55976999 0.016509304 0.69989932 1.0971281e-38
0.56161922 0.01650684 0.70131683 1.1063476e-38
0.56034744 0.018073913 0.69917846 1.078689e-38
0.56255686 0.018856175 0.70015252 1.097128e-38
0.56476396 0.019639168 0.70113748 1.0879084e-38
0.61880684 0.019532295 0.70170319 1.4290323e-38
0.56567562 0.021606257 0.70001215 1.0879084e-38
0.56806743 0.022789344 0.70078433 1.0602497e-38
0.61694968 0.021178426 0.70132905 1.5027888e-38
0.56877202 0.024371076 0.69991899 1.0602497e-38
0.57099473 0.025560867 0.70091319 1.0325911e-38
0.61309004 0.026096689 0.70076382 1.4935692e-38
0.57241368 0.027547326 0.70041966 1.0325911e-38
0.57423735 0.029141773 0.70067644 1.0325911e-38
0.6100297 0.027716698 0.70177996 1.5120083e-38
0.57549405 0.03074 0.70038903 1.0325911e-38
0.57727563 0.031944625 0.70070767 9.5883455e-39
0.60555816 0.032576535 0.701967 1.6595212e-38
0.60925126 0.030988459 0.70020169 1.4935692e-38
0.57866323 0.033962458 0.69903165 9.0351717e-39
0.5804677 0.034764744 0.70057327 9.3117586e-39
0.58239436 0.035568681 0.70197171 1.714766e-38
0.5840829 0.037195563 0.70119035 1.2906658e-38
0.58624601 0.038826697 0.70108569 1.2999219e-38
0.58841729 0.040463977 0.70098066 1.3091777e-38
0.58202899 0.042166173 0.70022047 1.7148386e-38
0.59059894 0.04210753 0.70087248 8.9429761e-39
0.59242076 0.043764129 0.69996148 8.9429761e-39
0.57120383 0.061689857 0.69943058 1.0142673e-38
0.52967513 -0.079447225 0.70246232 1.7056192e-38
0.53290308 -0.079129294 0.70360714 1.8070343e-38
0.53555602 -0.079307973 0.70428199 1.7885952e-38
0.53840148 -0.080033503 0.70472115 1.7517167e-38
0.52682263 -0.076148339 0.70249861 1.539667e-38
0.52908289 -0.077045068 0.703242 1.7424974e-38
0.53168082 -0.076923877 0.70437843 1.6871799e-38
0.52481842 -0.072924934 0.70266992 1.5304475e-38
0.52649939 -0.073918685 0.7034235 1.6687409e-38
0.53001881 -0.073978402 0.7044915 1.6410461e-38
0.54794198 -0.073319942 0.70240068 1.7700472e-38
0.52361405 -0.0705221 0.7030285 1.2630801e-38
0.52537656 -0.070560515 0.70441276 1.4382518e-38
0.5470019 -0.071604624 0.70359588 1.8161452e-38
0.54935151 -0.070281081 0.70308745 1.3550579e-38
0.52057832 -0.067034997 0.7025221 1.1801041e-38
0.52279449 -0.067344412 0.70411927 1.1801041e-38
0.54844058 -0.068575464 0.70424145 1.733169e-38
0.55122149 -0.068091892 0.70319641 1.5487053e-38
0.5183531 -0.063330367 0.70260501 1.1985432e-38
0.52056855 -0.064316116 0.70386136 1.1893236e-38
0.54984897 -0.065536648 0.70492876 1.9637308e-38
0.55255806 -0.065030389 0.70398355 1.6224982e-38
0.55621445 -0.063802771 0.70310432 1.5487415e-38
0.51721245 -0.061157029 0.70372647 1.1247867e-38
0.51957774 -0.061767057 0.7046901 1.1247867e-38
0.55384666 -0.062734514 0.70483339 1.7793032e-38
0.55955684 -0.060867656 0.70387793 1.567217e-38
0.56256878 -0.061163366 0.70261419 1.6226449e-38
0.51203692 -0.058278233 0.70368171 1.0325911e-38
0.51425397 -0.059974831 0.70316088 1.1247867e-38
0.5630461 -0.057938408 0.70449287 1.1801455e-38
0.56533891 -0.058981568 0.7029016 1.0050862e-38
0.50894314 -0.055586427 0.7033388 1.0325911e-38
0.51074743 -0.056654252 0.70419353 1.0325911e-38
0.56590617 -0.055765413 0.70467079 5.2581875e-39
0.56806612 -0.054344736 0.70449007 6.0875768e-39
0.50581777 -0.052252304 0.70347732 1.4382157e-38
0.50781584 -0.053443596 0.70446825 1.2907027e-38
0.57061923 -0.052970335 0.70384055 4.9816034e-39
0.50258362 -0.049092203 0.70295906 1.5581061e-38
0.50523752 -0.049928203 0.7042774 1.5026802e-38
0.57415962 -0.048410244 0.70447248 5.1660003e-39
0.50085008 -0.04638565 0.70287073 1.6226071e-38
0.50272965 -0.046436079 0.70400429 1.5119359e-38
0.50474471 -0.047249615 0.70495594 1.2905215e-38
0.57756174 -0.046252396 0.70406651 4.9816034e-39
0.50096387 -0.044170983 0.70271218 1.0787609e-38
0.50202674 -0.043433849 0.70373106 1.1708121e-38
0.50300479 -0.040519908 0.70362216 8.3887163e-39
0.58433408 -0.039432697 0.70458835 4.889405e-39
0.50396639 -0.038343403 0.70353878 9.957128e-39
0.50471884 -0.036882877 0.7037456 9.957128e-39
0.5057494 -0.035080045 0.70357096 1.1801041e-38
0.50776744 -0.034016974 0.70453453 1.1340062e-38
0.52039075 -0.033122566 0.70484442 1.9268887e-38
0.52372271 -0.033784099 0.70495313 1.5765453e-38
0.50654876 -0.032557458 0.70246935 1.3368366e-38
0.50855732 -0.031862095 0.70345175 1.1892873e-38
0.51161259 -0.031704608 0.70467424 1.6687045e-38
0.51491821 -0.03210919 0.70475 1.9360352e-38
0.51784927 -0.031505749 0.70452553 1.9360352e-38
0.52068102 -0.030887511 0.70445657 1.9268521e-38
0.5238418 -0.030767431 0.70479494 1.8254375e-38
0.59417254 -0.03196577 0.70284212 1.1156473e-38
0.50993264 -0.02970865 0.70281488 1.2076897e-38
0.51170552 -0.028865118 0.70338625 1.3183974e-38
0.51452178 -0.029115016 0.70404232 1.9545471e-38
0.51735556 -0.028492972 0.70394838 1.9267794e-38
0.52094656 -0.027891565 0.70410168 1.9176684e-38
0.52357674 -0.027998198 0.7043196 1.926852e-38
0.52575737 -0.027823856 0.70473576 1.8070339e-38
0.59448522 -0.028675251 0.70493573 1.5027191e-38
0.59731811 -0.027213253 0.70409751 1.7977428e-38
0.51216441 -0.026829898 0.70226187 1.1893231e-38
0.51431346 -0.026137447 0.70308053 1.3368366e-38
0.51764917 -0.025506275 0.70355326 1.9360719e-38
0.52033037 -0.024858501 0.70368278 1.926852e-38
0.52295989 -0.024958674 0.70389992 1.9083763e-38
0.52633977 -0.02507971 0.7043792 1.8069972e-38
0.52880138 -0.024402585 0.70485121 1.8254373e-38
0.59896702 -0.024029434 0.70464313 1.7239498e-38
0.60016793 -0.025742479 0.70325428 1.9544752e-38
0.60303485 -0.024262853 0.70240605 2.0282677e-38
0.515683 -0.02395995 0.7024709 1.1893236e-38
0.51772577 -0.023015147 0.70303506 1.6779605e-38
0.52016276 -0.021598719 0.70307881 1.6779603e-38
0.52322078 -0.021951647 0.70355254 1.9268522e-38
0.52667093 -0.022070836 0.7039417 1.8623147e-38
0.52962357 -0.021907261 0.70459753 1.834693e-38
0.60182446 -0.022547711 0.7038008 1.8622794e-38
0.60453063 -0.021044765 0.70314676 1.9360721e-38
0.52113116 -0.019633986 0.70261109 1.1524454e-38
0.5235548 -0.018947279 0.70310789 1.7332777e-38
0.52697742 -0.019056037 0.70353681 1.8715707e-38
0.52991658 -0.019393183 0.70421267 1.834657e-38
0.53209776 -0.018948356 0.70465916 1.834693e-38
0.60309041 -0.019319244 0.70480037 1.6870714e-38
0.60712749 -0.019524898 0.70263118 1.9914255e-38
0.52479184 -0.016727358 0.70270526 1.1340062e-38
0.52647686 -0.016016068 0.70295632 1.5304473e-38
0.52896339 -0.0160852 0.70339942 1.8531322e-38
0.53214097 -0.016264046 0.70411938 1.5944802e-38
0.53455275 -0.01622905 0.7047593 1.834693e-38
0.60567743 -0.017798766 0.70429003 1.7516805e-38
0.60827732 -0.016270615 0.70377731 1.8346567e-38
0.61054748 -0.017197007 0.70242286 2.0375233e-38
0.5294646 -0.013072357 0.70273924 1.4843495e-38
0.53253841 -0.013140047 0.70367086 1.8162539e-38
0.53572851 -0.013214938 0.70447028 1.7885955e-38
0.53822953 -0.012511276 0.70494306 1.0050848e-38
0.60725898 -0.012953445 0.70493799 2.0190842e-38
0.61020839 -0.013878094 0.70403653 1.9729502e-38
0.61339176 -0.014002524 0.70288545 2.0006087e-38
0.61600626 -0.013271693 0.7023927 2.0467428e-38
0.53087723 -0.010842174 0.70212352 7.3764211e-39
0.53283793 -0.010368641 0.70286542 1.3276566e-38
0.53547871 -0.010169911 0.70355684 1.4106692e-38
0.53818917 -0.0099736974 0.70417118 4.4280541e-39
0.54026556 -0.010271145 0.70479214 4.2436572e-39
0.60728073 -0.011328928 0.7049132 2.037487e-38
0.61042863 -0.010335424 0.70460588 2.0006086e-38
0.61309493 -0.010681804 0.70445013 2.0006085e-38
0.61624861 -0.010792842 0.70335048 2.0098646e-38
0.61930668 -0.010898476 0.70237434 2.0559625e-38
0.5355019 -0.0073818625 0.7026999 4.0592604e-39
0.5384649 -0.0071848952 0.70340258 4.4280541e-39
0.54160321 -0.007242878 0.70431036 4.2436572e-39
0.61022419 -0.0076086693 0.70483762 1.9821328e-38
0.61374807 -0.0082360245 0.70493877 1.9637301e-38
0.61588997 -0.008287834 0.70497996 1.9729859e-38
0.61987054 -0.0075819623 0.70419979 1.7793396e-38
0.62262297 -0.0085138697 0.70235598 2.0559625e-38
0.62484431 -0.0069164932 0.70234376 2.0559625e-38
0.53877527 -0.0043933666 0.70258784 4.0592604e-39
0.54144025 -0.0041830111 0.70328283 4.3358557e-39
0.54398876 -0.0039653038 0.70413977 4.1510973e-39
0.54601032 -0.0034809615 0.70485657 4.1510973e-39
0.62656546 -0.0052906647 0.70289421 1.7148021e-38
0.54147846 -0.0013760837 0.70240754 4.4280541e-39
0.54434288 -0.0011603958 0.70327532 4.1510973e-39
0.5470323 -0.00093571219 0.7043817 4.1510973e-39
0.54517668 0.0016451689 0.70262241 4.1510973e-39
0.54787046 0.0018739561 0.70372927 4.1510973e-39
0.55003524 0.0018520383 0.70469368 4.1510973e-39
0.5478785 0.0041780565 0.70248133 3.874502e-39
0.55030662 0.0049264734 0.70311594 3.874502e-39
0.55300617 0.0051614568 0.7042439 3.874502e-39
0.55194879 0.0072236536 0.70227838 3.874502e-39
0.55405033 0.0077241906 0.70293182 3.874502e-39
0.55615711 0.008225725 0.70358706 3.874502e-39
0.5581302 0.0087316521 0.70441699 3.5975451e-39
0.55676222 0.010287704 0.70241886 3.6901051e-39
0.55929178 0.011210752 0.70346612 4.519486e-39
0.56173402 0.011826151 0.70487893 1.0141893e-38
0.55984998 0.013387408 0.70227778 7.2845926e-39
0.5619849 0.014163137 0.7033363 1.0971281e-38
0.56412345 0.014939558 0.70439708 1.1063476e-38
0.56346995 0.016504373 0.70273536 1.1063476e-38
0.56532252 0.016501905 0.70415533 1.1063476e-38
0.61602908 0.01790609 0.70482367 1.539667e-38
0.620269 0.017884852 0.7025255 1.4843496e-38
0.62173289 0.016235549 0.70334858 1.5304475e-38
0.56546497 0.018461529 0.70274693 1.097128e-38
0.56830269 0.019244486 0.70420158 1.2907388e-38
0.57175601 0.019632244 0.7049216 1.9545472e-38
0.57477123 0.019626305 0.70496517 1.9176691e-38
0.61180937 0.019551801 0.70467603 1.456691e-38
0.6140343 0.019547246 0.70461601 1.539667e-38
0.56896973 0.021737494 0.70256406 1.0510302e-38
0.57138252 0.022000324 0.70414466 1.4843495e-38
0.57416701 0.022000177 0.7044636 1.9453278e-38
0.57719558 0.022000179 0.70450616 1.8900104e-38
0.58023763 0.022000179 0.70454895 1.6503018e-38
0.58329678 0.022000179 0.70459205 1.5120083e-38
0.58636975 0.022000181 0.70463526 1.4935692e-38
0.58821154 0.02280019 0.70491874 1.4013736e-38
0.59237474 0.022802945 0.70494413 1.5120083e-38
0.59550107 0.022805003 0.70498168 1.5120083e-38
0.60188174 0.022809261 0.70496362 1.5120083e-38
0.60737127 0.022813011 0.70481002 1.5488866e-38
0.60981011 0.022000231 0.70448881 1.5488866e-38
0.61305547 0.022001099 0.70326602 1.4843496e-38
0.54322648 0.02416636 0.70377535 4.0585317e-39
0.57219237 0.024371877 0.70316052 1.0325911e-38
0.57428426 0.025431238 0.70350122 1.6410821e-38
0.57773829 0.025175747 0.70385414 1.9176691e-38
0.58078468 0.025183756 0.70389533 1.8254735e-38
0.58346087 0.024924463 0.70398682 1.5673257e-38
0.58611327 0.025463499 0.70411974 1.4382518e-38
0.58836055 0.025201701 0.70474327 1.4013736e-38
0.59568375 0.025221117 0.70476937 1.5212279e-38
0.59886312 0.025229648 0.70476329 1.5120083e-38
0.60096765 0.025235191 0.70478809 1.5120083e-38
0.60418135 0.025243819 0.70477694 1.5488866e-38
0.6078335 0.025254801 0.70428318 1.5857648e-38
0.6106118 0.024447823 0.70357835 1.5304475e-38
0.57511324 0.028079987 0.70249867 1.0325911e-38
0.57726741 0.028352112 0.70318764 1.9545113e-38
0.58031464 0.028368143 0.70322722 1.9084495e-38
0.58337569 0.028384248 0.70326698 1.7609365e-38
0.58601654 0.028395422 0.70382446 1.4751301e-38
0.58914256 0.028675189 0.7046423 1.4013736e-38
0.5960899 0.028176444 0.70470649 1.5765453e-38
0.59915853 0.028462477 0.7044217 1.5120083e-38
0.6012646 0.028473571 0.70444596 1.5120083e-38
0.60459399 0.028492041 0.70430434 1.5304475e-38
0.57778168 0.030741882 0.70256859 1.0325911e-38
0.5804767 0.031292111 0.70262212 1.9361082e-38
0.58312464 0.03184389 0.7027452 1.8531322e-38
0.58621413 0.031596422 0.70359039 1.7701561e-38
0.58960843 0.03161674 0.70450389 1.604204e-38
0.59667325 0.031670481 0.70484602 1.5765453e-38
0.59912992 0.031693019 0.70445478 1.5765453e-38
0.60151565 0.03171441 0.70415664 1.539667e-38
0.60366392 0.030920669 0.70414191 1.5949844e-38
0.58333343 0.034509484 0.70249647 1.7977785e-38
0.58643591 0.034800217 0.70332783 1.7793755e-38
0.58980787 0.034826752 0.70426953 1.8070343e-38
0.59241396 0.035651214 0.70489824 1.8070343e-38
0.59946001 0.03493211 0.70407307 1.7424973e-38
0.6022203 0.034157552 0.7033447 1.6871797e-38
0.58700365 0.03721524 0.70265543 1.724022e-38
0.58926427 0.03831115 0.70285863 1.714802e-38
0.59222394 0.038070545 0.70389271 1.7240221e-38
0.59519225 0.038107995 0.70411217 1.8070342e-38
0.59793055 0.037344821 0.70338666 1.9176329e-38
0.59048146 0.040477544 0.70224541 1.705546e-38
0.59302521 0.040506378 0.70295429 1.8070335e-38
0.59264529 0.042121515 0.70216703 1.705546e-38
0.53625166 -0.07828676 0.705028 1.7240221e-38
0.5387904 -0.078473374 0.70545602 1.8531317e-38
0.53548145 -0.075845167 0.70602632 1.5211552e-38
0.5384903 -0.076339073 0.70625323 1.9176691e-38
0.54087758 -0.07626982 0.70647418 1.9268887e-38
0.53268558 -0.074087881 0.70595282 1.2629712e-38
0.53587514 -0.072987281 0.70716077 1.9361082e-38
0.53832877 -0.072926104 0.70728171 1.9545472e-38
0.54112709 -0.073148981 0.70738691 1.982206e-38
0.52657771 -0.070590712 0.70530295 1.6963271e-38
0.52934802 -0.070810467 0.70537192 1.530303e-38
0.53228849 -0.07096599 0.70646983 1.5027162e-38
0.53526372 -0.070902765 0.70712996 1.9268159e-38
0.53831023 -0.069860674 0.70730555 1.9360714e-38
0.5411042 -0.070075646 0.70741618 1.9729865e-38
0.54520607 -0.069746681 0.70587921 1.7608278e-38
0.52455384 -0.067381427 0.70550185 1.1708845e-38
0.52669418 -0.067484722 0.70638704 1.7516444e-38
0.52951598 -0.067706347 0.70638645 1.7701194e-38
0.53218454 -0.067899711 0.70660567 1.7977786e-38
0.53569388 -0.068147615 0.70698446 1.9176684e-38
0.53843141 -0.066819184 0.70714974 1.9176321e-38
0.54112315 -0.067009643 0.70739186 1.9361081e-38
0.5439027 -0.067213908 0.70753634 1.9729865e-38
0.54753274 -0.066875659 0.70539147 1.9913895e-38
0.52333778 -0.064232707 0.70587575 1.2538606e-38
0.52655929 -0.0644283 0.70656461 1.8992297e-38
0.52945936 -0.064655706 0.7064606 1.9729493e-38
0.53232884 -0.064876445 0.70641798 1.9637666e-38
0.53591895 -0.065129355 0.70669341 1.9084491e-38
0.53869122 -0.063798964 0.70681572 1.9176331e-38
0.54132694 -0.063973546 0.70713127 1.8991931e-38
0.54459399 -0.063936278 0.70747828 1.9453278e-38
0.54765958 -0.064491399 0.70646387 2.000645e-38
0.51781881 -0.060054626 0.70580691 1.3183975e-38
0.52052903 -0.061000001 0.70589793 1.3183975e-38
0.52300107 -0.061151769 0.70632273 1.4474714e-38
0.52658278 -0.061399553 0.70653379 1.6318626e-38
0.52950585 -0.061622735 0.70639968 1.9176327e-38
0.532426 -0.061843917 0.70629144 1.9822055e-38
0.53530902 -0.062057916 0.70624864 1.9545112e-38
0.53803986 -0.061479457 0.70642263 1.9084493e-38
0.54162824 -0.060950521 0.7067461 1.9084131e-38
0.54481548 -0.06140634 0.70719677 1.8900101e-38
0.54725319 -0.061055172 0.70738715 1.9637668e-38
0.55018139 -0.061550837 0.70697242 1.982206e-38
0.55232501 -0.060944863 0.70674002 1.982206e-38
0.55567873 -0.061298728 0.70500696 1.7977783e-38
0.51422131 -0.058300529 0.70569044 1.1247867e-38
0.51766986 -0.057996023 0.70641989 1.5212279e-38
0.52070975 -0.05770418 0.70648271 1.5212279e-38
0.52314144 -0.058374792 0.70654869 1.5304475e-38
0.52660596 -0.058370486 0.70650327 1.539667e-38
0.52952921 -0.058585569 0.70636916 1.604204e-38
0.53246999 -0.058801938 0.70623422 1.8992297e-38
0.53541291 -0.059017468 0.70611411 1.9914252e-38
0.53831828 -0.058458768 0.70606411 1.9268524e-38
0.54192996 -0.057924032 0.70636046 1.9084131e-38
0.54453492 -0.058080401 0.70673251 1.8807543e-38
0.54710233 -0.058230057 0.7071681 1.908413e-38
0.55091393 -0.058486633 0.70728195 2.0006092e-38
0.55403364 -0.058717068 0.70706069 1.9914255e-38
0.55672967 -0.058962774 0.706159 1.8807546e-38
0.5591467 -0.05838351 0.70561796 1.7700838e-38
0.50994635 -0.055031389 0.70528561 1.2538606e-38
0.51203918 -0.055867828 0.70616347 1.1985432e-38
0.51461864 -0.056031216 0.70639336 1.5027888e-38
0.51736414 -0.055466969 0.70641732 1.5027888e-38
0.52102214 -0.054959975 0.70647907 1.5027888e-38
0.52375287 -0.055140145 0.7065621 1.5212279e-38
0.52662754 -0.055340908 0.70647478 1.539667e-38
0.5295521 -0.055548042 0.70633924 1.539667e-38
0.53249359 -0.055756349 0.70620352 1.6226431e-38
0.53544867 -0.055965573 0.70606786 1.9176691e-38
0.53809172 -0.055897105 0.70594478 1.9913893e-38
0.54134655 -0.054841399 0.70587349 1.9545474e-38
0.54395097 -0.054991726 0.70624518 1.8899743e-38
0.54740214 -0.055187669 0.70678908 1.8807903e-38
0.55101031 -0.055404887 0.70716089 1.9637666e-38
0.55395758 -0.055601459 0.70715564 2.000645e-38
0.55696309 -0.05580505 0.70709878 1.9822053e-38
0.56051701 -0.056086659 0.70638168 1.816255e-38
0.56280994 -0.055478968 0.70601308 1.0788059e-38
0.5647127 -0.054029331 0.70613372 5.4422186e-39
0.50905013 -0.05245487 0.70568055 1.2537158e-38
0.51154196 -0.052797854 0.70683795 1.4290323e-38
0.51473725 -0.053047907 0.70623338 1.5581061e-38
0.5175488 -0.052485898 0.70616972 1.5027888e-38
0.52031422 -0.051913667 0.70618427 1.5027888e-38
0.5230338 -0.052085288 0.70627964 1.5027888e-38
0.5267055 -0.052319203 0.70637214 1.5120083e-38
0.52956855 -0.052509341 0.7063176 1.539667e-38
0.53251159 -0.052709691 0.70617998 1.539667e-38
0.53546882 -0.052911002 0.70604169 1.604204e-38
0.53844339 -0.053113483 0.70590305 1.8900104e-38
0.54144073 -0.051781029 0.70575297 1.9729861e-38
0.54425538 -0.051954627 0.70585752 1.926888e-38
0.5478313 -0.052159891 0.70624638 1.9084494e-38
0.55047607 -0.052307721 0.70660186 1.8991938e-38
0.55314279 -0.05245766 0.70694613 1.9175967e-38
0.55696827 -0.052693564 0.70709229 1.9913892e-38
0.56000412 -0.052892186 0.7070151 2.0283037e-38
0.56230688 -0.053062197 0.70663202 2.0559623e-38
0.5661456 -0.052035559 0.70601845 2.0559624e-38
0.56904382 -0.051183909 0.7057578 1.9545115e-38
0.50628531 -0.048814602 0.70532399 1.2258764e-38
0.50831866 -0.049634125 0.70626533 1.1798869e-38
0.5111621 -0.049750984 0.70735341 1.4750938e-38
0.51459098 -0.050024964 0.70643067 1.604204e-38
0.51770633 -0.049498737 0.70595855 1.5120083e-38
0.52048922 -0.048921354 0.70595086 1.5120083e-38
0.52323085 -0.049088955 0.70601833 1.5027888e-38
0.52688277 -0.049310453 0.70613873 1.5027888e-38
0.52966517 -0.049481496 0.70619118 1.5120083e-38
0.53253508 -0.049663551 0.70614946 1.5304475e-38
0.53548408 -0.049855523 0.7060219 1.539667e-38
0.53845906 -0.050049789 0.70588285 1.6134235e-38
0.54145241 -0.049476966 0.70573795 1.8623156e-38
0.5443216 -0.04888209 0.70577317 1.8991927e-38
0.54803038 -0.049096562 0.70599473 1.9452914e-38
0.55079854 -0.049254585 0.70619631 1.9453275e-38
0.55353212 -0.049406916 0.70645922 1.9176688e-38
0.55681849 -0.049844403 0.70686859 1.9268522e-38
0.55937397 -0.04947564 0.706976 1.9637669e-38
0.56209958 -0.049907368 0.70688701 2.0651821e-38
0.56518662 -0.049864035 0.70637304 2.0375231e-38
0.56883162 -0.049582645 0.70601594 1.9084504e-38
0.57117879 -0.048959203 0.70562136 6.9173361e-39
0.50580323 -0.046138812 0.7059868 1.2075093e-38
0.50845599 -0.046970498 0.70731783 1.3366919e-38
0.511922 -0.046796031 0.7075603 1.68718e-38
0.5144006 -0.046997625 0.70668733 1.6134235e-38
0.51783729 -0.046506077 0.70578301 1.5304475e-38
0.5206477 -0.045924705 0.70573962 1.5120083e-38
0.52340722 -0.04608753 0.70578438 1.5120083e-38
0.52675885 -0.046535593 0.7058897 1.5027888e-38
0.5292418 -0.046176154 0.70592308 1.5027888e-38
0.53265095 -0.046629362 0.70599854 1.5120083e-38
0.5355072 -0.046800882 0.70599204 1.5212279e-38
0.53847456 -0.046985872 0.70586294 1.539667e-38
0.54146409 -0.047172777 0.70572305 1.5949843e-38
0.54465353 -0.046076983 0.70576137 1.7609004e-38
0.54715657 -0.045961156 0.70586801 1.9268887e-38
0.54995388 -0.046116181 0.70602959 1.9545111e-38
0.55366176 -0.046318784 0.70629716 1.9545472e-38
0.55645525 -0.046471335 0.70650029 1.9545474e-38
0.55925566 -0.04662374 0.7067132 1.9361082e-38
0.56206077 -0.046775948 0.70693481 1.9729865e-38
0.5652647 -0.046977378 0.70668674 1.9914259e-38
0.56851387 -0.047183208 0.70640272 1.7056587e-38
0.57157063 -0.045786526 0.70637548 5.4425774e-39
0.57442248 -0.046002254 0.70538616 5.0738033e-39
0.50333381 -0.042662259 0.70565891 1.0785801e-38
0.50562632 -0.043630473 0.70672613 1.410448e-38
0.50876355 -0.043859486 0.70772433 1.8900104e-38
0.51131672 -0.0435206 0.70755607 1.7978148e-38
0.51421034 -0.043972593 0.70694381 1.7240583e-38
0.51744598 -0.043968108 0.70589513 1.5949844e-38
0.52020842 -0.042642158 0.70550084 1.5120083e-38
0.52356708 -0.043081857 0.70557249 1.5120083e-38
0.52633965 -0.043238215 0.70561695 1.5120083e-38
0.52911299 -0.043393608 0.70568001 1.5027888e-38
0.5328269 -0.043601453 0.70576942 1.5120083e-38
0.53565186 -0.043761291 0.70580471 1.5120083e-38
0.53851366 -0.043924734 0.70581245 1.5212279e-38
0.54147959 -0.044100393 0.70570314 1.539667e-38
0.54435974 -0.043493003 0.70572466 1.5120083e-38
0.54717851 -0.04287469 0.70584017 1.6779243e-38
0.55000508 -0.043026231 0.7059651 1.8900097e-38
0.55374306 -0.043223225 0.70619547 1.9453275e-38
0.55653727 -0.043368891 0.70639837 1.9545472e-38
0.5593453 -0.043515276 0.70660233 1.9545474e-38
0.56217742 -0.043663781 0.70679128 1.9637669e-38
0.5651598 -0.0438293 0.706815 1.7886333e-38
0.56821454 -0.044002645 0.70676684 8.2076966e-39
0.57099628 -0.043900877 0.70666188 5.1659919e-39
0.57484019 -0.043616831 0.70610929 5.0738019e-39
0.57718968 -0.042973798 0.70574093 5.0738019e-39
0.57954931 -0.042326674 0.70537156 5.0738019e-39
0.50378841 -0.04116907 0.70627421 8.9429761e-39
0.50527251 -0.040485997 0.70671558 1.5580699e-38
0.50814444 -0.040387522 0.70691711 1.9637668e-38
0.51147705 -0.040821642 0.70692647 1.9268887e-38
0.5142535 -0.040979013 0.70688564 1.7148387e-38
0.5177145 -0.04046797 0.70594817 1.7332778e-38
0.52096486 -0.039925762 0.70531672 1.5120083e-38
0.52372688 -0.0400743 0.70536047 1.5120083e-38
0.52650082 -0.040223479 0.70540446 1.5120083e-38
0.52928948 -0.040373452 0.70544857 1.5120083e-38
0.53301179 -0.040572546 0.70552868 1.5027888e-38
0.53582931 -0.040723991 0.70557493 1.5120083e-38
0.5386709 -0.040877316 0.70560992 1.5120083e-38
0.54153067 -0.041032009 0.70563775 1.5212279e-38
0.54406583 -0.040910836 0.70568806 1.5120083e-38
0.54719985 -0.039787896 0.70581317 1.530411e-38
0.55002868 -0.039932474 0.70593536 1.6687408e-38
0.55381143 -0.04012524 0.70611006 1.9268524e-38
0.55661917 -0.040265508 0.70629644 1.9360714e-38
0.55942893 -0.040405087 0.70649886 1.9453278e-38
0.5623244 -0.040553719 0.70661044 1.8255112e-38
0.56529611 -0.040710106 0.70664811 8.0236626e-39
0.56832105 -0.040871739 0.70663738 4.9812419e-39
0.57138765 -0.041037049 0.70659697 4.8894064e-39
0.57446897 -0.041203171 0.70655608 4.8894064e-39
0.578008 -0.040078413 0.70639747 4.8894078e-39
0.58115035 -0.040001504 0.7059164 4.9816034e-39
0.50546139 -0.037822265 0.70562792 1.0418106e-38
0.50831616 -0.037694383 0.70626956 1.9452912e-38
0.51164931 -0.038121149 0.70627958 1.9452552e-38
0.51420689 -0.037765559 0.70612365 1.9361079e-38
0.51774037 -0.037561558 0.70618325 1.6777444e-38
0.52112353 -0.036923464 0.70510507 1.5304475e-38
0.5238868 -0.037064847 0.70514834 1.5120083e-38
0.52666199 -0.037206836 0.70519185 1.5120083e-38
0.52945203 -0.037349589 0.70523548 1.5120083e-38
0.53225398 -0.037492946 0.70527935 1.5120083e-38
0.53506732 -0.037636641 0.7053284 1.5027888e-38
0.53882003 -0.037827201 0.70541787 1.5027888e-38
0.54160082 -0.03796532 0.70554781 1.5027888e-38
0.54438531 -0.038102917 0.70569211 1.5027888e-38
0.54719537 -0.037470352 0.70581883 1.5120083e-38
0.55003339 -0.036836378 0.70592946 1.5120083e-38
0.55383742 -0.037021838 0.70607758 1.7240223e-38
0.5566929 -0.037160292 0.70620477 1.9084128e-38
0.55953801 -0.03729669 0.70636404 1.6779994e-38
0.56247544 -0.037442431 0.70642459 6.7329378e-39
0.56544602 -0.037590832 0.70646465 4.889405e-39
0.56843871 -0.037740856 0.70649409 4.889405e-39
0.57150626 -0.037897963 0.70645338 4.8894064e-39
0.57458907 -0.038055897 0.70641148 4.8894064e-39
0.57735544 -0.037933886 0.70636123 4.8894064e-39
0.58086807 -0.03679207 0.70625257 4.8894064e-39
0.58295572 -0.03689624 0.70622349 4.8894064e-39
0.58504951 -0.036203381 0.70619583 4.8894064e-39
0.50911421 -0.035030674 0.70559382 1.6687043e-38
0.51160467 -0.0349117 0.70551252 1.9360712e-38
0.51438427 -0.03505427 0.7054711 1.9452551e-38
0.51717669 -0.035197522 0.70542908 1.9361078e-38
0.52013922 -0.034604587 0.70518053 1.8807907e-38
0.52493024 -0.034852009 0.7050035 1.5120083e-38
0.5267818 -0.0341838 0.70503378 1.5120083e-38
0.52955306 -0.034317166 0.70510292 1.5120083e-38
0.53232318 -0.03444967 0.70518911 1.5120083e-38
0.53510183 -0.034582213 0.70528352 1.5120083e-38
0.53882307 -0.034759529 0.70541394 1.5027888e-38
0.54161918 -0.034892157 0.70552433 1.5027888e-38
0.54440123 -0.03502243 0.70567179 1.5027888e-38
0.5471946 -0.035153233 0.7058199 1.5027888e-38
0.55033273 -0.034010429 0.70596284 1.5120083e-38
0.5538246 -0.033914108 0.70609349 1.5212279e-38
0.55669719 -0.034047056 0.70619941 1.55818e-38
0.55961752 -0.034184065 0.70626569 6.9173277e-39
0.56260288 -0.034327015 0.70626795 4.8894064e-39
0.56559676 -0.034469925 0.70628029 4.889405e-39
0.56858349 -0.034611389 0.70631802 4.889405e-39
0.57162505 -0.034757547 0.70630968 4.8894064e-39
0.57470918 -0.03490727 0.706267 4.8894064e-39
0.57780737 -0.035057463 0.70622885 4.8894064e-39
0.58090782 -0.034412608 0.70620525 4.8894064e-39
0.58397841 -0.03375905 0.70623827 4.8894064e-39
0.58643973 -0.034142349 0.70618981 4.9816034e-39
0.59003848 -0.033284798 0.70522606 5.9953896e-39
0.51015472 -0.032618053 0.70500147 1.9637668e-38
0.52490246 -0.031816971 0.70504028 1.6595213e-38
0.52671027 -0.031139441 0.70512807 1.539667e-38
0.52945626 -0.031262979 0.70522994 1.5120083e-38
0.53221971 -0.031387661 0.70532405 1.5120083e-38
0.53499758 -0.031512991 0.70541877 1.5120083e-38
0.53870779 -0.03167963 0.70556235 1.5027888e-38
0.54150248 -0.031805065 0.70567387 1.5120083e-38
0.54438061 -0.031938091 0.70569813 1.5120083e-38
0.5472132 -0.032065757 0.7057963 1.5027888e-38
0.54970986 -0.031918198 0.7059266 1.5027888e-38
0.55412573 -0.031078637 0.70612699 1.3276559e-38
0.55667812 -0.030931471 0.70622313 7.3779275e-39
0.55959606 -0.031060638 0.70629227 5.0734361e-39
0.56257957 -0.031195512 0.7062965 4.8894064e-39
0.56560588 -0.031333666 0.70626909 4.9812433e-39
0.56865323 -0.031473119 0.70623308 4.9812433e-39
0.57170594 -0.031612191 0.70621186 4.8894064e-39
0.57474881 -0.031749621 0.7062192 4.8894064e-39
0.57780123 -0.031887073 0.70623618 4.8894064e-39
0.58086753 -0.032025155 0.70625317 4.8894064e-39
0.58360344 -0.031882394 0.70627362 4.8894064e-39
0.58703202 -0.031503309 0.70630783 4.889405e-39
0.58906972 -0.031591903 0.70636284 4.889405e-39
0.59166926 -0.030128561 0.70576894 9.3129427e-39
0.52676606 -0.02886755 0.70505458 1.8162539e-38
0.52942044 -0.028215822 0.70527679 1.5765453e-38
0.533041 -0.028366204 0.70549059 1.5120083e-38
0.53582096 -0.028484451 0.70558566 1.5120083e-38
0.53861511 -0.028603276 0.70568174 1.5027888e-38
0.54139137 -0.028719731 0.70581615 1.5027888e-38
0.5441888 -0.028837506 0.70594239 1.5212279e-38
0.54771698 -0.02873314 0.7059806 1.5304475e-38
0.55033565 -0.029364692 0.70595902 1.5212279e-38
0.55348974 -0.028980471 0.70610219 1.0972422e-38
0.5566591 -0.027816102 0.70624685 4.9815978e-39
0.55957592 -0.02793758 0.70631713 4.8894064e-39
0.56255651 -0.028064245 0.70632493 4.8894064e-39
0.56555748 -0.028191973 0.70632833 4.8894064e-39
0.5685935 -0.028322216 0.70630574 4.9812433e-39
0.57165718 -0.028454125 0.70627075 4.8894064e-39
0.57470036 -0.028583493 0.70627761 4.8894064e-39
0.57774806 -0.028712453 0.70629984 4.8894064e-39
0.58081394 -0.02884239 0.70631695 4.8894064e-39
0.58389741 -0.028973065 0.70633423 4.8894064e-39
0.58699489 -0.029104343 0.70635152 4.8894064e-39
0.58904207 -0.029189819 0.70639515 4.889405e-39
0.59107721 -0.028472733 0.70646119 4.889405e-39
0.52983326 -0.025447926 0.70514774 1.834693e-38
0.53304422 -0.025313918 0.7054863 1.5304475e-38
0.53572428 -0.025415968 0.70571095 1.4935692e-38
0.5385102 -0.025526892 0.70581681 1.5120083e-38
0.54131275 -0.025638707 0.70591682 1.5027888e-38
0.54408222 -0.025746793 0.70607811 1.5027888e-38
0.54783809 -0.025895702 0.70623791 1.5028249e-38
0.55075914 -0.026015969 0.7062459 1.0880589e-38
0.55370831 -0.026137942 0.7062391 5.8109885e-39
0.55661052 -0.025476713 0.70630723 4.8894064e-39
0.55988812 -0.025087938 0.70634055 4.8894064e-39
0.56253624 -0.024933496 0.70634985 4.8894064e-39
0.56553346 -0.025052916 0.70635772 4.8894064e-39
0.56854433 -0.025172874 0.70636564 4.8894064e-39
0.57159781 -0.025295703 0.70634264 4.9812433e-39
0.57466698 -0.025419198 0.70631772 4.8894064e-39
0.57770258 -0.025539082 0.70635426 4.8894064e-39
0.58076036 -0.025660226 0.70638084 4.8894064e-39
0.58384335 -0.02578271 0.70639831 4.8894064e-39
0.58694041 -0.025905754 0.70641577 4.8894064e-39
0.58900541 -0.025987389 0.7064383 4.889405e-39
0.59212327 -0.026110992 0.70646489 7.4701287e-39
0.59612656 -0.025502305 0.70548058 1.5948402e-38
0.53056502 -0.022944536 0.70501304 1.8254735e-38
0.5323205 -0.022244023 0.70519263 1.89923e-38
0.53494501 -0.022334773 0.70548683 1.6318626e-38
0.53847581 -0.022457652 0.70586109 1.4843496e-38
0.54120964 -0.022556517 0.70604891 1.5120083e-38
0.54400676 -0.022659998 0.70617414 1.5027888e-38
0.54771161 -0.022794986 0.70639777 1.0788034e-38
0.55053282 -0.022899175 0.70653057 5.7187929e-39
0.55347383 -0.02301267 0.70653236 4.8894064e-39
0.55647421 -0.02313045 0.70647681 4.9816034e-39
0.55919665 -0.022978852 0.70637685 4.8894078e-39
0.56251931 -0.021803239 0.70637071 4.8894064e-39
0.56551433 -0.021914527 0.7063812 4.8894064e-39
0.56852376 -0.022026377 0.70639074 4.8894064e-39
0.57155347 -0.02213913 0.70639628 4.8894064e-39
0.57461554 -0.022253864 0.70637965 4.9812433e-39
0.57766861 -0.022367131 0.70639503 4.8894064e-39
0.58071661 -0.022479434 0.70643294 4.8894064e-39
0.58379018 -0.022593029 0.70646125 4.8894064e-39
0.58688593 -0.022707785 0.70647991 4.8894064e-39
0.58895987 -0.022784684 0.70649171 4.8894064e-39
0.59203792 -0.02289689 0.70656449 4.889405e-39
0.59512079 -0.023008909 0.70664799 4.889405e-39
0.59777105 -0.022323404 0.70602626 1.677852e-38
0.53510523 -0.019289903 0.70527905 1.8623517e-38
0.53861576 -0.019402649 0.70568079 1.5673257e-38
0.54126549 -0.019487962 0.70597738 1.4751301e-38
0.54395312 -0.019575734 0.7062425 1.2262778e-38
0.54766822 -0.019702237 0.70645273 5.7184328e-39
0.55048454 -0.019798802 0.70659125 4.8890449e-39
0.55337322 -0.019900436 0.70665812 4.8894064e-39
0.55640757 -0.020012839 0.70655966 4.9816034e-39
0.559488 -0.020128042 0.70642602 4.8894078e-39
0.56250846 -0.019455817 0.706384 4.8894064e-39
0.56583411 -0.019049434 0.70639914 4.8894064e-39
0.56850755 -0.018880442 0.70641041 4.8894064e-39
0.57153285 -0.018984806 0.70642132 4.8894064e-39
0.57457268 -0.019089708 0.70643139 4.8894064e-39
0.57763314 -0.019195456 0.70643747 4.8894064e-39
0.58068335 -0.019299906 0.70647252 4.8894064e-39
0.58374828 -0.019404761 0.70651078 4.8894064e-39
0.58683181 -0.019510446 0.70654356 4.8894064e-39
0.58994031 -0.01961726 0.70656794 4.889405e-39
0.59302616 -0.01972189 0.70663548 4.889405e-39
0.59508342 -0.019791301 0.70669127 4.9815992e-39
0.59802634 -0.019628713 0.70654875 6.9173291e-39
0.6005165 -0.020832114 0.70530796 1.6040952e-38
0.53616774 -0.016271126 0.7051366 1.8807908e-38
0.53877127 -0.016347166 0.70548058 1.8162545e-38
0.54142207 -0.016426209 0.70577681 1.1525587e-38
0.54405618 -0.01650353 0.70611113 6.1793969e-39
0.54771781 -0.016616806 0.70639008 4.8890477e-39
0.55062062 -0.016712425 0.70642006 4.8890449e-39
0.55347419 -0.016803939 0.70653182 4.8890449e-39
0.55636597 -0.016897751 0.70661145 4.8894064e-39
0.55942309 -0.017002802 0.70650625 4.9816034e-39
0.56249768 -0.017108494 0.70639729 4.8894064e-39
0.56515747 -0.016935069 0.7064085 4.8894064e-39
0.56849658 -0.016521189 0.70642376 4.8894064e-39
0.57151794 -0.015831122 0.70643926 4.8894064e-39
0.57455677 -0.015927887 0.70645046 4.8894064e-39
0.57764751 -0.016027503 0.70642024 4.8894064e-39
0.58069086 -0.016123446 0.70646358 4.889405e-39
0.58373517 -0.016218871 0.70652628 4.889405e-39
0.58679527 -0.016314877 0.70658666 4.889405e-39
0.5898931 -0.016412772 0.70662338 4.8894064e-39
0.59298897 -0.01651004 0.70667875 4.9815992e-39
0.59520209 -0.016584363 0.70655364 5.8109956e-39
0.59868169 -0.016706068 0.70620006 1.5489628e-38
0.60218096 -0.016828459 0.70584452 1.9914257e-38
0.60460162 -0.016104802 0.70552069 2.019048e-38
0.53921217 -0.013552912 0.70532435 1.0696578e-38
0.54154706 -0.013360523 0.70561671 4.7968436e-39
0.54416001 -0.013430198 0.70597893 4.7050081e-39
0.5477097 -0.013526907 0.70640028 4.797208e-39
0.55060673 -0.01361458 0.70643747 4.9812433e-39
0.55356097 -0.013705432 0.70642316 4.8890477e-39
0.55647802 -0.013793306 0.70647204 4.8890449e-39
0.55939138 -0.013880455 0.70654547 4.8894064e-39
0.56245255 -0.013976874 0.70645273 4.9816034e-39
0.56547761 -0.014070246 0.70642602 4.8894064e-39
0.56848556 -0.014162036 0.70643711 4.8894064e-39
0.57150686 -0.013465969 0.70645273 4.8894064e-39
0.57458282 -0.013559047 0.70641905 4.9812433e-39
0.57772088 -0.012863098 0.70633245 4.9812433e-39
0.58080256 -0.012953391 0.70633054 4.889405e-39
0.58383167 -0.013039887 0.70641208 4.889405e-39
0.58687407 -0.013126763 0.70649397 4.889405e-39
0.58993495 -0.013214219 0.70657426 4.889405e-39
0.59308457 -0.013306707 0.70656747 6.456358e-39
0.59539616 -0.013380961 0.70632827 1.5858416e-38
0.59774488 -0.013457125 0.70605659 1.9729506e-38
0.60128808 -0.013572023 0.70564663 2.009864e-38
0.60482597 -0.013686053 0.70526409 2.0190481e-38
0.60710853 -0.01456989 0.7051096 2.0190479e-38
0.54173887 -0.010297321 0.70537108 4.4280527e-39
0.5442633 -0.010355624 0.70584732 4.7050081e-39
0.54776347 -0.010440853 0.70633215 4.7050081e-39
0.55053622 -0.010513382 0.70652622 4.9812433e-39
0.55350322 -0.010597134 0.70649558 4.9812433e-39
0.55648386 -0.010681266 0.70646477 4.9812433e-39
0.55946314 -0.010764746 0.70645666 4.8890477e-39
0.5624156 -0.010846186 0.70649827 4.8894064e-39
0.56545877 -0.010932587 0.70644915 4.8894064e-39
0.56847084 -0.011016637 0.70645499 4.8894064e-39
0.57152885 -0.011102859 0.70642614 4.8894064e-39
0.57463026 -0.011191234 0.70636201 4.9812433e-39
0.57776874 -0.010488851 0.70627517 4.9812433e-39
0.58088642 -0.010575071 0.70623064 4.889405e-39
0.58394432 -0.0098607503 0.70627862 4.889405e-39
0.58698761 -0.0099397572 0.70636022 4.889405e-39
0.58903098 -0.0099929674 0.70640826 5.0737935e-39
0.59217107 -0.010076538 0.70640922 1.3830487e-38
0.59529853 -0.010159044 0.70644164 1.9729868e-38
0.59839487 -0.0099803312 0.70612305 2.0282671e-38
0.60161799 -0.010615543 0.70567578 2.019011e-38
0.6048128 -0.010441303 0.70527911 2.0190473e-38
0.60718703 -0.0096981116 0.70502007 2.0374507e-38
0.54452711 -0.0072886012 0.70551103 4.2436572e-39
0.54786777 -0.0073569948 0.7062003 4.7050081e-39
0.55050737 -0.0074152322 0.70656246 4.797208e-39
0.55343217 -0.0074887574 0.70658445 4.9812433e-39
0.55641222 -0.0075648576 0.70655394 4.9812433e-39
0.55940944 -0.0076413983 0.70652318 4.9812433e-39
0.56242049 -0.0077182902 0.7064923 4.9812433e-39
0.56544381 -0.0077953287 0.70646739 4.8890477e-39
0.56849909 -0.0078736916 0.7064206 4.9812433e-39
0.57158899 -0.0079534352 0.70635337 4.9812433e-39
0.5746935 -0.0080335569 0.70628583 4.9812433e-39
0.57781655 -0.0081141554 0.70621783 4.9812433e-39
0.58095455 -0.0081951404 0.70614958 4.9812433e-39
0.58301646 -0.0074512959 0.70615143 4.889405e-39
0.58605707 -0.0075243199 0.70623267 4.889405e-39
0.58919448 -0.006801853 0.70621645 1.3553523e-38
0.59234762 -0.0068777078 0.70620322 1.9176694e-38
0.5954625 -0.0069512706 0.70625138 1.9637669e-38
0.59867001 -0.0070290491 0.70621359 2.009828e-38
0.60221744 -0.0071232952 0.70580268 1.9912787e-38
0.6046266 -0.0071879597 0.70549214 2.0004627e-38
0.60704643 -0.0072529102 0.70518029 2.0189749e-38
0.61148256 -0.0065465402 0.70504582 1.9268155e-38
0.61350614 -0.0065900907 0.70521146 1.9360351e-38
0.61667657 -0.0066615222 0.70532358 1.9729502e-38
0.54568571 -0.0050087422 0.70526928 4.1510973e-39
0.54807067 -0.0042766831 0.70594352 4.2436572e-39
0.55061018 -0.0043239389 0.70643318 4.7050081e-39
0.5533734 -0.0043817842 0.70665795 4.8890463e-39
0.55634058 -0.0044492716 0.70664299 4.9812433e-39
0.5593372 -0.0045177364 0.70661247 4.9812433e-39
0.56234765 -0.0045865169 0.70658183 4.9812433e-39
0.56543541 -0.004658564 0.70647776 4.9816034e-39
0.56856978 -0.0047325008 0.70633459 4.9812433e-39
0.57165587 -0.0048036585 0.70627236 4.9812433e-39
0.57475811 -0.0048752278 0.70620811 4.9812433e-39
0.57788032 -0.0049472968 0.70614153 4.9812433e-39
0.58101881 -0.0050197728 0.70607305 4.9812433e-39
0.5831008 -0.0050673326 0.70605135 4.8894036e-39
0.58615702 -0.0051351567 0.70611471 8.2073168e-39
0.58932394 -0.0044077076 0.70606452 1.5120086e-38
0.59247804 -0.0044772699 0.70605099 1.7885952e-38
0.59560859 -0.0045454092 0.70608175 1.9637669e-38
0.59907061 -0.0040817466 0.70615911 1.9452908e-38
0.60203248 -0.0038792286 0.70601499 2.0281946e-38
0.60444045 -0.0039366707 0.70570505 2.0189747e-38
0.60757154 -0.0037381507 0.70540023 1.9821328e-38
0.61049628 -0.0043441853 0.70534617 1.9268515e-38
0.61315101 -0.0041241636 0.70561188 1.9268517e-38
0.61625296 -0.0041865571 0.70579857 1.9729503e-38
0.6194706 -0.0042536603 0.70587158 1.9822059e-38
0.6223045 -0.0040373988 0.7059831 1.982206e-38
0.54777431 -0.0019686632 0.70508546 4.1510973e-39
0.55010861 -0.0012279423 0.70583415 4.2436572e-39
0.55338442 -0.0012785066 0.706644 4.7050109e-39
0.55626899 -0.0013345107 0.70673203 4.9812433e-39
0.55926502 -0.0013949042 0.70670187 4.9812433e-39
0.56231695 -0.0014573475 0.70661962 4.9816034e-39
0.56545365 -0.0015230412 0.70645547 4.9816034e-39
0.56860602 -0.0015890617 0.70629054 4.9816034e-39
0.57173234 -0.0016535339 0.70617986 4.9812433e-39
0.57483339 -0.0017166212 0.70611739 4.9812433e-39
0.57759881 -0.0020371955 0.70606965 4.9812433e-39
0.58039629 -0.001565475 0.705998 5.0734361e-39
0.58318806 -0.0018866202 0.70594788 7.8389014e-39
0.58631426 -0.0019493634 0.70592934 1.4290695e-38
0.58945334 -0.002012359 0.70591259 1.5120443e-38
0.59260851 -0.002075626 0.70589864 1.604204e-38
0.59575486 -0.0021382021 0.70591199 1.8346929e-38
0.59851426 -0.0019228645 0.70598483 1.9268517e-38
0.60199147 -0.0014513545 0.70606214 1.9637306e-38
0.60430092 -0.0014994871 0.70586473 2.0282308e-38
0.6077404 -0.0015703496 0.70561635 1.9729135e-38
0.61077613 -0.0016248357 0.70584518 1.9361074e-38
0.61369097 -0.00085801724 0.70622873 1.9268155e-38
0.61675119 -0.00091101136 0.70646298 1.9452548e-38
0.61956245 -0.00068761158 0.70658559 1.9637664e-38
0.62254041 -0.0012913253 0.70653683 1.9729502e-38
0.55148119 0.0018373998 0.70533788 4.1510973e-39
0.55368358 0.0018142629 0.70626944 4.2436572e-39
0.5561974 0.0017794268 0.70682108 4.9812433e-39
0.55913031 0.0017669592 0.70660752 4.8868686e-39
0.56233501 0.0016696285 0.70659745 4.9816034e-39
0.56547177 0.0016126903 0.70643324 4.9816034e-39
0.56862438 0.001555468 0.70626819 4.9816034e-39
0.57178861 0.0014981925 0.70611179 4.9812433e-39
0.57491082 0.0014427537 0.70602429 4.9812433e-39
0.5769884 0.0014061211 0.70598233 4.9816006e-39
0.58011889 0.0013509355 0.70591998 8.7604836e-39
0.5832566 0.0012957659 0.70586658 1.5027892e-38
0.58640927 0.0012404029 0.7058171 1.521228e-38
0.58958268 0.0011845715 0.70576084 1.5304475e-38
0.59276539 0.0011287732 0.70571554 1.5212279e-38
0.59594953 0.001073218 0.70568603 1.5765453e-38
0.59800649 0.0010387143 0.70575398 1.7424971e-38
0.60110468 0.00098676095 0.7058574 1.9268885e-38
0.60423565 0.00093386322 0.70593929 2.0006086e-38
0.60740823 0.00087964535 0.70599437 1.9361077e-38
0.61042351 0.00083148479 0.70624411 1.9360715e-38
0.61333579 0.0016033053 0.70662844 1.9360714e-38
0.61637795 0.0015565902 0.70688075 1.9360352e-38
0.61953592 0.0015062401 0.70702279 1.9544742e-38
0.62277544 0.0014533773 0.70709044 1.9544739e-38
0.55424267 0.0041246749 0.7055701 3.874502e-39
0.55631417 0.0051351753 0.70585614 3.7819434e-39
0.55927885 0.0048433859 0.70668477 4.9812433e-39
0.56237745 0.0047960766 0.70654523 4.9812433e-39
0.56549579 0.0047484557 0.70640385 4.9812433e-39
0.56864268 0.0047002062 0.7062459 4.9816034e-39
0.57181513 0.0046514808 0.70607972 4.9816034e-39
0.57498831 0.0046030022 0.70593095 5.0734361e-39
0.5770663 0.0045719976 0.70588887 8.0232899e-39
0.58019042 0.0045255027 0.70583475 1.4566921e-38
0.58332312 0.0044789817 0.7057876 1.521228e-38
0.58647448 0.0044321874 0.70574033 1.5304475e-38
0.58964467 0.0043850485 0.70568818 1.5304475e-38
0.59283847 0.0043374849 0.70563024 1.5304475e-38
0.59601581 0.0042906497 0.70560908 1.5120083e-38
0.59805655 0.0042619482 0.70569611 1.5212279e-38
0.60114712 0.004218217 0.70580852 1.7240583e-38
0.60425609 0.0041741515 0.70591599 1.9361081e-38
0.60725361 0.0041337628 0.70617008 1.8992296e-38
0.61072606 0.0043619671 0.70671821 1.8992294e-38
0.61335748 0.0037840635 0.70701128 1.9453275e-38
0.61665905 0.0042851851 0.70738155 1.9452914e-38
0.61951047 0.00369878 0.70745796 1.9452905e-38
0.62324858 0.0039054789 0.70656657 1.8714993e-38
0.55755931 0.0071862573 0.70512712 3.5975451e-39
0.55979764 0.0079495711 0.70604229 4.2432957e-39
0.56258184 0.0079188552 0.70629382 4.9812419e-39
0.56568158 0.0078804055 0.70617658 4.9812419e-39
0.5687964 0.0078417696 0.70605886 4.9812419e-39
0.57156122 0.0075445864 0.70597774 5.0737949e-39
0.57439888 0.0080351671 0.70582348 1.0327425e-38
0.57714516 0.0077387327 0.70579433 1.5028249e-38
0.58025682 0.0077010039 0.70575535 1.521228e-38
0.58338964 0.0076629459 0.70570874 1.5304475e-38
0.58654153 0.0076246504 0.70566118 1.5304475e-38
0.58970845 0.0075861709 0.70561337 1.5304475e-38
0.59290099 0.007547291 0.70555735 1.5304475e-38
0.59603155 0.0075101391 0.70559084 1.5120083e-38
0.5980708 0.007486694 0.7056796 1.5120083e-38
0.60114515 0.0074513191 0.70581079 1.5304475e-38
0.60424638 0.0074154525 0.70592701 1.7056192e-38
0.60731232 0.0073807007 0.70610338 1.8715344e-38
0.61020869 0.0073502958 0.70648724 1.8991571e-38
0.613051 0.0073214173 0.70694876 1.8900101e-38
0.6168201 0.0072836243 0.7076087 1.8900104e-38
0.61994761 0.0080676144 0.70778501 1.7978146e-38
0.56229323 0.010786104 0.7058304 7.2849738e-39
0.56555235 0.010755304 0.70592505 4.9812419e-39
0.56836075 0.01125145 0.70577145 5.1656318e-39
0.57112247 0.010963178 0.70568967 9.1292661e-39
0.57423258 0.010933522 0.70561475 1.4751306e-38
0.57727671 0.01090533 0.70563662 1.5120083e-38
0.58034116 0.010876918 0.7056548 1.5212279e-38
0.58346307 0.010847525 0.7056216 1.5304475e-38
0.58661211 0.010817798 0.70557797 1.5304475e-38
0.58977735 0.010787902 0.70553243 1.5304475e-38
