# .PCD v0.7 - Point Cloud Data file format
VERSION 0.7
FIELDS x y z rgb
SIZE 4 4 4 4
TYPE F F F F
COUNT 1 1 1 1
WIDTH 981
HEIGHT 1
VIEWPOINT 0 0 0 1 0 0 0
POINTS 981
DATA ascii
0.46370572 0.19457041 0.63574308 6.1724086e-39
0.45802695 0.1952886 0.63529664 4.6976401e-39
0.45097548 0.20014712 0.63585979 5.1625965e-39
0.44544283 0.20839758 0.63490003 4.6065319e-39
0.44164464 0.21449582 0.63481826 4.7916448e-39
0.43951795 0.2173747 0.63471478 4.699089e-39
0.43824452 0.21908325 0.63503855 4.8842034e-39
0.43519551 0.22305688 0.63467324 4.4210546e-39
0.43271065 0.22629298 0.63477147 4.4214147e-39
0.42801237 0.23479471 0.63598251 5.9970614e-39
0.4299252 0.24559298 0.63542873 4.6065305e-39
0.43974596 0.27694836 0.63490528 2.7698892e-39
0.45816731 0.19494079 0.63789648 5.7161333e-39
0.45480752 0.19643801 0.63788229 6.0878081e-39
0.45167142 0.19926119 0.63751888 5.9966984e-39
0.44886646 0.20305975 0.63756579 5.8119456e-39
0.45005643 0.20127177 0.6374284 5.9045014e-39
0.43558317 0.20682648 0.63725835 6.1821757e-39
0.44662917 0.20668115 0.6376102 5.9970614e-39
0.44746697 0.20532505 0.63759273 5.8119456e-39
0.44548979 0.20847565 0.6376732 5.9966998e-39
0.44358385 0.21146935 0.63716674 5.9967012e-39
0.44184583 0.21412849 0.6373297 5.9970614e-39
0.4394829 0.21738689 0.63764262 5.9974215e-39
0.43724 0.22043534 0.63776058 5.9974201e-39
0.43457541 0.22399887 0.6372081 5.811224e-39
0.43555284 0.22274464 0.63691485 5.9045028e-39
0.43279979 0.22658232 0.63748944 5.9970614e-39
0.4309926 0.22971366 0.63735694 5.9974229e-39
0.4294723 0.23240204 0.63720065 6.0896185e-39
0.42792746 0.2352283 0.63757586 6.1818156e-39
0.42683277 0.23785804 0.63810748 6.1821757e-39
0.42746091 0.24039324 0.63697588 6.0888927e-39
0.42966655 0.24444644 0.63733274 5.9016077e-39
0.43139109 0.24778338 0.63712537 5.1611504e-39
0.4328568 0.24997339 0.63882172 5.7161291e-39
0.45930609 0.30496642 0.6363191 1.0694693e-38
0.45884013 0.19480188 0.63959682 1.0236972e-38
0.45969182 0.19473314 0.6409952 8.7618401e-39
0.45459136 0.19715209 0.63966042 7.2896079e-39
0.45696223 0.19634318 0.64085472 6.735711e-39
0.45163375 0.1995804 0.64041632 6.1821771e-39
0.45374495 0.19831541 0.6410858 6.8282682e-39
0.44901201 0.2028738 0.64062738 6.1821757e-39
0.44686127 0.20634511 0.64005327 6.1821757e-39
0.44782299 0.20482889 0.6412406 6.1821757e-39
0.43494409 0.20799659 0.63977617 6.2740112e-39
0.44568649 0.20829603 0.64065051 6.1821757e-39
0.44295451 0.2122294 0.64110076 6.1821757e-39
0.44428724 0.21036357 0.64021933 6.1821757e-39
0.47362739 0.21064982 0.64011055 8.2079404e-39
0.44057053 0.21578254 0.63954872 6.1821757e-39
0.44198999 0.21373737 0.63992923 6.1821757e-39
0.42739892 0.21807484 0.63909501 4.698366e-39
0.43918917 0.21760631 0.64053124 6.1821757e-39
0.43733448 0.22017369 0.64092511 6.1821757e-39
0.43395883 0.22493558 0.63973117 6.1821757e-39
0.43560639 0.22262157 0.64063233 6.1821757e-39
0.4327127 0.22678506 0.64050686 6.1821757e-39
0.43104267 0.22939992 0.64061189 6.1821757e-39
0.42828918 0.2339073 0.64123124 6.1821757e-39
0.42944893 0.2320423 0.64059001 6.1821757e-39
0.42779714 0.23611118 0.64068013 6.1821757e-39
0.42785352 0.23907384 0.64057934 6.1821757e-39
0.42803898 0.2417727 0.6407246 6.1821757e-39
0.42978686 0.24590804 0.64141744 5.9016049e-39
0.41483447 0.24748598 0.64174199 5.7194025e-39
0.46093416 0.194617 0.64314651 8.2090292e-39
0.45775792 0.1966192 0.6432752 6.458764e-39
0.45952207 0.19577338 0.64408243 6.458764e-39
0.45097607 0.20060131 0.64293939 6.7357124e-39
0.45473728 0.19859725 0.64364153 6.458764e-39
0.44924131 0.20272338 0.64353031 6.1821757e-39
0.44757485 0.20543092 0.64354503 6.1821757e-39
0.44560969 0.2085671 0.6436097 6.1821757e-39
0.44324484 0.21190897 0.64343119 6.1821757e-39
0.44073492 0.21539743 0.64210457 6.1821757e-39
0.44142464 0.21451116 0.6437422 6.1821757e-39
0.43938231 0.2173994 0.64350569 6.1821757e-39
0.4369745 0.22084044 0.64391965 6.1821757e-39
0.43817091 0.21911955 0.64372379 6.1821757e-39
0.43440557 0.22442305 0.64321607 6.1821757e-39
0.4352982 0.22313774 0.64307058 6.1821757e-39
0.43292293 0.22655986 0.64345831 6.1821757e-39
0.43088114 0.22955352 0.64374936 6.1821757e-39
0.42868346 0.23359767 0.64338219 6.1821757e-39
0.42904478 0.23231687 0.64273876 6.1821757e-39
0.42874637 0.23582672 0.64327025 6.1821757e-39
0.42883024 0.23879978 0.64312088 6.1821757e-39
0.4289141 0.24177405 0.64297152 6.1821757e-39
0.42897707 0.24400552 0.64285946 6.1821757e-39
0.42941535 0.24516903 0.64492595 6.1818142e-39
0.43025208 0.24708597 0.6434418 6.2714734e-39
0.4330349 0.24998599 0.64278907 6.3622201e-39
0.43871215 0.18297309 0.64742297 5.2529859e-39
0.46258807 0.19446237 0.64601082 7.3799944e-39
0.45745206 0.19741175 0.6461165 6.1821757e-39
0.46034837 0.19569565 0.64551193 6.458764e-39
0.45220006 0.20026964 0.64649105 6.1821757e-39
0.45418277 0.19916746 0.64596832 6.1821757e-39
0.4495936 0.20280333 0.64667875 6.1821757e-39
0.45045924 0.20146309 0.6466186 6.1821757e-39
0.44678575 0.2069339 0.64582592 6.1821757e-39
0.44812506 0.20510705 0.64706004 6.1821757e-39
0.44555515 0.20884758 0.64651668 6.1821757e-39
0.44357398 0.21160716 0.64568567 6.1821757e-39
0.44428682 0.21073662 0.64727622 6.1821757e-39
0.4406907 0.21593881 0.64782429 6.1821757e-39
0.44201079 0.21392326 0.64649159 6.1821757e-39
0.43950072 0.2174819 0.64612609 6.1821757e-39
0.43728268 0.22067961 0.64668047 6.1821757e-39
0.43487 0.22392234 0.64665079 6.1821757e-39
0.43581709 0.22266695 0.64640844 6.1821757e-39
0.43197608 0.22788751 0.64607167 6.1821757e-39
0.43336773 0.22588015 0.64645529 6.1821757e-39
0.43071371 0.22970444 0.64688098 6.1821757e-39
0.43249458 0.2280803 0.6467002 1.0694693e-38
0.42883557 0.23316595 0.64595437 6.1821757e-39
0.42952442 0.23180133 0.64615023 6.1821757e-39
0.42812088 0.23498911 0.64722204 6.1821757e-39
0.42813033 0.24155927 0.64720529 6.1821757e-39
0.42877179 0.24336134 0.64606744 6.1821757e-39
0.42990091 0.24416374 0.64690137 6.2732853e-39
0.43127361 0.24682799 0.64589339 6.6388056e-39
0.43232709 0.24859357 0.64545393 7.099781e-39
0.4338702 0.25035644 0.64557433 6.6388042e-39
0.43573308 0.25229675 0.64514351 6.8224752e-39
0.46319821 0.19390869 0.65056461 9.7730997e-39
0.45241266 0.19973612 0.65031898 6.1821757e-39
0.45368963 0.19835459 0.6509698 6.1821757e-39
0.44932878 0.20375612 0.64991784 6.1821757e-39
0.45050344 0.20198436 0.64980215 6.1821757e-39
0.44789204 0.20580049 0.64954996 6.1821757e-39
0.44585538 0.20871361 0.64927298 6.1821757e-39
0.44375035 0.21175635 0.64959013 6.1821757e-39
0.44465154 0.21045402 0.64945489 6.1821757e-39
0.44194898 0.21435082 0.64986998 6.1821757e-39
0.43937087 0.21794194 0.64915997 6.1821757e-39
0.43723238 0.22091943 0.64957845 6.1821757e-39
0.43817985 0.21966006 0.64934462 6.1821757e-39
0.4343909 0.2246756 0.65030056 6.1821757e-39
0.43573475 0.22288391 0.64936858 6.1821757e-39
0.43301171 0.2264386 0.64919364 6.1821757e-39
0.43105415 0.22953768 0.64957362 6.1821757e-39
0.42968544 0.23226787 0.64916396 6.1821757e-39
0.42809474 0.23568363 0.64938772 6.1821757e-39
0.42739764 0.23856966 0.64944547 6.1821757e-39
0.43250936 0.24907191 0.65077394 6.1785505e-39
0.43506038 0.25138164 0.64913583 6.6380839e-39
0.43731904 0.25298986 0.65083086 7.0990635e-39
0.47497857 0.17539501 0.65362847 7.469295e-39
0.45763457 0.19424078 0.65275514 7.9328011e-39
0.46584666 0.19413841 0.65179002 8.0210198e-39
0.45432267 0.19745705 0.65269017 6.1821757e-39
0.45624828 0.19558655 0.65227401 6.1821757e-39
0.4518427 0.20004077 0.65265626 6.1821757e-39
0.44953847 0.20342141 0.65234596 6.1821757e-39
0.45047516 0.20191035 0.65355098 6.1821757e-39
0.44837928 0.20519041 0.65243894 6.1821757e-39
0.44629762 0.20833698 0.65293467 6.1821757e-39
0.44317192 0.21275099 0.65197068 6.1821757e-39
0.44462055 0.21073616 0.65229547 6.1821757e-39
0.44185907 0.21459457 0.6528132 6.1821757e-39
0.44011155 0.2170244 0.6525473 6.1821757e-39
0.437114 0.22112527 0.65258229 6.1821757e-39
0.43845135 0.21931978 0.65167588 6.1821757e-39
0.43470818 0.22434765 0.65255022 6.1821757e-39
0.43563932 0.22309396 0.65233415 6.1821757e-39
0.43344942 0.22600533 0.65287089 6.1821757e-39
0.43136939 0.22951914 0.6527651 6.1821757e-39
0.43003044 0.23254803 0.6523062 6.1821757e-39
0.42877328 0.23575783 0.65170896 6.1821757e-39
0.42955649 0.23565063 0.65313768 6.1821757e-39
0.42815647 0.23875831 0.65185899 6.1821757e-39
0.42922759 0.23838565 0.65371436 6.1821757e-39
0.42788324 0.24103515 0.65234023 6.1821757e-39
0.42787141 0.24327235 0.65329647 6.1821757e-39
0.42997724 0.24677922 0.65240002 6.0870836e-39
0.43475819 0.25067276 0.65246361 6.4540542e-39
0.45851433 0.19418767 0.65407026 7.470381e-39
0.46051759 0.19437292 0.65492737 7.1930696e-39
0.46319497 0.1946205 0.65607303 6.8228409e-39
0.46520782 0.19480665 0.65693426 6.730281e-39
0.45464805 0.19680166 0.65583086 6.2740112e-39
0.45672783 0.19517741 0.65562034 6.5505967e-39
0.45190254 0.19965404 0.65531981 6.1821757e-39
0.44967103 0.20305614 0.65489244 6.1821757e-39
0.45060492 0.2015478 0.65609616 6.2743713e-39
0.44796929 0.20557451 0.6558947 6.2740112e-39
0.44585717 0.20892608 0.65575343 6.1821757e-39
0.44360238 0.21227367 0.65540463 6.1821757e-39
0.44452828 0.21099128 0.65522587 6.1821757e-39
0.44204894 0.21439819 0.65572852 6.1821757e-39
0.4395743 0.21781434 0.65531993 6.1821757e-39
0.43728682 0.2209021 0.65553254 6.1821757e-39
0.43498731 0.22400291 0.6548568 6.1821757e-39
0.43604624 0.22257526 0.65581256 6.1821757e-39
0.43297544 0.22678542 0.65555352 6.2743699e-39
0.43178168 0.22995862 0.65484047 6.1821757e-39
0.43088245 0.23282142 0.6554758 6.4584011e-39
0.43027842 0.23551235 0.6546706 6.2740112e-39
0.42942381 0.23797172 0.65616328 6.2740112e-39
0.42849207 0.24162455 0.65500396 6.6427909e-39
0.42800152 0.2442611 0.65586406 6.7349865e-39
0.42935961 0.2459096 0.65627539 6.1803638e-39
0.43088675 0.24765143 0.65639752 5.9016021e-39
0.45748401 0.19487889 0.65849799 7.9324409e-39
0.46655232 0.19493096 0.65750962 6.8224766e-39
0.45497608 0.19689073 0.65895027 6.5505967e-39
0.46789873 0.19505548 0.6580857 6.9146722e-39
0.46974412 0.19517483 0.65923339 6.8224766e-39
0.45201501 0.19946806 0.65834171 8.4848944e-39
0.45339775 0.19850005 0.65971625 8.945511e-39
0.44937187 0.20324925 0.65814525 7.656217e-39
0.45071101 0.20117719 0.65866935 9.3139306e-39
0.44765788 0.20589486 0.65825069 6.4584011e-39
0.4459962 0.20855197 0.65827757 6.4584011e-39
0.44391376 0.21174663 0.65902019 6.1821757e-39
0.44471961 0.21063517 0.65766555 6.2740112e-39
0.44197121 0.21440071 0.65862346 6.1821757e-39
0.43977714 0.21741796 0.65866256 6.1821757e-39
0.43732107 0.22078052 0.65916562 6.6427909e-39
0.43814409 0.2197088 0.65776086 6.1821757e-39
0.434398 0.2246961 0.65864754 8.5770901e-39
0.4356505 0.22304153 0.6583398 7.563664e-39
0.43292239 0.22663732 0.65842211 8.3005046e-39
0.43168661 0.22941759 0.65778738 7.5640227e-39
0.43073529 0.23183841 0.65943623 8.7611198e-39
0.42980537 0.23548456 0.658279 6.9190177e-39
0.4286111 0.23971857 0.6575827 7.0112119e-39
0.42795527 0.24153976 0.65872824 7.3796329e-39
0.42831111 0.24389741 0.65810668 6.4587612e-39
0.42960232 0.24550787 0.65863228 6.2732839e-39
0.43112701 0.24724607 0.65875727 5.9945222e-39
0.43265563 0.24898876 0.65888262 5.8090449e-39
0.43498605 0.25117132 0.65763605 6.3618572e-39
0.45824978 0.19458641 0.66134429 8.9455054e-39
0.45556742 0.19708513 0.66162306 6.4584011e-39
0.45667696 0.19584626 0.6611765 6.4587598e-39
0.45177424 0.20043497 0.6614747 8.6692843e-39
0.45415848 0.19840123 0.66119975 7.656217e-39
0.44948423 0.20287785 0.66070032 9.7745472e-39
0.4502582 0.20204878 0.66215307 8.4848944e-39
0.44796762 0.20521539 0.66139042 8.5770901e-39
0.44593883 0.20835257 0.66180241 8.2083089e-39
0.44313529 0.21264306 0.66169882 5.4442575e-39
0.44441354 0.21079397 0.66092777 6.181817e-39
0.44169626 0.21463402 0.66137779 5.6286474e-39
0.43943688 0.21777456 0.66199142 5.3524234e-39
0.43692532 0.22125174 0.66167575 6.0896241e-39
0.43835253 0.21934237 0.66016513 6.0903402e-39
0.43459702 0.22431451 0.66106671 9.4061263e-39
0.43564886 0.22289446 0.66201979 8.852598e-39
0.43333372 0.22595336 0.66139668 9.1298995e-39
0.43111363 0.22936372 0.66154504 9.3139306e-39
0.42989951 0.23358336 0.66088474 8.3008647e-39
0.42869949 0.23585153 0.6629647 9.3139306e-39
0.42929864 0.23471908 0.66192627 9.0377053e-39
0.42835608 0.23834515 0.66080064 8.2083103e-39
0.4280031 0.24104343 0.66141474 6.2743713e-39
0.42861968 0.24353491 0.66034204 6.1821757e-39
0.42936713 0.24413025 0.6618076 6.1818156e-39
0.43078321 0.24652724 0.66211551 5.8108568e-39
0.43219233 0.2482015 0.66244119 5.8101324e-39
0.4336043 0.24987921 0.66276753 5.9016035e-39
0.43558562 0.25186992 0.66212779 6.0852689e-39
0.45958969 0.19432291 0.66460621 9.1295338e-39
0.45554143 0.19667549 0.66438234 6.1821757e-39
0.4576208 0.19542569 0.66507548 6.9186561e-39
0.45223099 0.19983038 0.66435456 6.4587598e-39
0.45421773 0.19802172 0.66382384 6.2740112e-39
0.44958511 0.20302966 0.66462237 7.0112119e-39
0.45047849 0.20172621 0.66451263 6.2743699e-39
0.44693863 0.2069356 0.66491467 9.2220951e-39
0.44810876 0.20520006 0.66479212 8.2086691e-39
0.44558725 0.20897381 0.66443467 7.4714684e-39
0.44349885 0.21214138 0.66518873 2.770971e-39
0.44423753 0.21100962 0.66395652 5.4438988e-39
0.44186413 0.21442954 0.66428739 2.7709696e-39
0.43977135 0.21739624 0.66461968 2.4007536e-39
0.43744737 0.22063389 0.66444552 2.2228363e-39
0.43438911 0.22446132 0.66417003 6.6424322e-39
0.4355064 0.22307809 0.66500449 3.8769486e-39
0.43186551 0.22780488 0.66300333 8.6692843e-39
0.43250167 0.2269111 0.66465682 6.6427909e-39
0.43105701 0.22956747 0.6643939 7.6558582e-39
0.42999887 0.23200655 0.66438526 9.2217364e-39
0.4283669 0.23614553 0.6649152 7.4714684e-39
0.42911845 0.23412323 0.66498995 8.4848944e-39
0.42793036 0.23904786 0.66429776 6.1821757e-39
0.44399092 0.23822717 0.66300398 4.6061675e-39
0.4286443 0.24158254 0.66306037 6.1821757e-39
0.42918247 0.24134776 0.66487932 6.1821757e-39
0.4301649 0.244096 0.66409928 5.9048615e-39
0.43116796 0.24620426 0.66420311 5.3487913e-39
0.43218929 0.24766694 0.66519207 4.3339135e-39
0.43779236 0.25344586 0.66386127 6.1774659e-39
0.44000137 0.25502348 0.66559672 6.3618572e-39
0.45974138 0.18766558 0.66676891 8.0228247e-39
0.46087679 0.19404155 0.66793513 9.0373353e-39
0.45447409 0.1975227 0.66746604 6.1821757e-39
0.45715079 0.1960258 0.66718608 6.4583997e-39
0.45260689 0.19919765 0.66735083 6.1821757e-39
0.45072445 0.20176645 0.66772109 6.1821757e-39
0.44825736 0.20532788 0.66726094 6.3662068e-39
0.44611898 0.2083867 0.66717511 6.2740112e-39
0.4434047 0.21238606 0.66806167 1.2119312e-39
0.44468305 0.21055047 0.66729355 2.8692777e-39
0.44095659 0.21580762 0.66671664 1.5749572e-39
0.441991 0.21437438 0.66770411 1.3019674e-39
0.43969023 0.21762978 0.66748011 1.6649934e-39
0.43698078 0.22139628 0.66796136 1.3923652e-39
0.43828148 0.21960711 0.66712767 1.3019674e-39
0.43428516 0.22465843 0.667081 4.4290378e-39
0.43583581 0.22276482 0.66717517 1.5796305e-39
0.43302903 0.22628778 0.66740108 5.9977858e-39
0.43121338 0.22939344 0.66754663 6.2743699e-39
0.42954767 0.23312303 0.66698992 6.7349865e-39
0.42849484 0.23585987 0.66789025 6.1821757e-39
0.42852536 0.2385895 0.66738212 6.1821757e-39
0.42895508 0.24070963 0.66800916 6.1821757e-39
0.42903239 0.24218488 0.6678763 6.1821757e-39
0.4335503 0.24976805 0.66696721 5.0714799e-39
0.46036276 0.19419101 0.6714372 7.9313563e-39
0.46355617 0.19391082 0.67171597 7.8380747e-39
0.45527524 0.19724374 0.67020828 6.1821757e-39
0.45746073 0.19604726 0.67071712 6.2743699e-39
0.45923424 0.19507432 0.6692186 7.1948773e-39
0.45171639 0.20027255 0.67059577 6.1821757e-39
0.45330882 0.1983213 0.67069983 6.1821757e-39
0.44930941 0.203545 0.67048186 6.1821757e-39
0.45022297 0.20225912 0.67033762 6.1821757e-39
0.44782624 0.205697 0.67066693 6.1821757e-39
0.44616497 0.20831998 0.6707018 5.813396e-39
0.44344044 0.21268834 0.67070597 1.7557499e-39
0.44454142 0.21094914 0.67068291 2.4039892e-39
0.442247 0.21438091 0.67088538 1.5727992e-39
0.43994173 0.21745668 0.67022151 1.6639158e-39
0.43750396 0.22078425 0.67069674 1.6639144e-39
0.43876153 0.21914165 0.67039239 1.3920051e-39
0.4347108 0.22438954 0.66908085 2.8606499e-39
0.43550852 0.22358041 0.67044556 1.9437355e-39
0.43316129 0.22675148 0.67035055 5.9052315e-39
0.43108201 0.22963722 0.67072016 6.1821757e-39
0.42972082 0.2324661 0.67078024 6.1821757e-39
0.42960453 0.23526999 0.67097962 6.1821757e-39
0.42967153 0.23816764 0.67086476 6.1821757e-39
0.42973548 0.24106461 0.67075515 6.1821757e-39
0.42980021 0.24433979 0.67091572 6.1821757e-39
0.43341845 0.24961545 0.67126983 5.9019636e-39
0.4353205 0.25155568 0.6707629 5.900879e-39
0.4204829 0.2684167 0.67047304 6.0881682e-39
0.4596318 0.19444968 0.6739316 8.3919673e-39
0.4666208 0.19431254 0.6722253 7.3760105e-39
0.46892822 0.19461504 0.67260873 7.0994236e-39
0.45504639 0.1974858 0.67325437 6.2740112e-39
0.45695791 0.19618791 0.67419571 7.1956004e-39
0.4522396 0.19970228 0.67332178 6.1821757e-39
0.45383072 0.19813043 0.67253709 6.1821757e-39
0.44967335 0.20307529 0.67391455 6.1821757e-39
0.450627 0.20181006 0.67370319 6.1821757e-39
0.44820991 0.20505688 0.6736201 6.1821757e-39
0.44617522 0.20838004 0.6733737 5.6286474e-39
0.44372398 0.2123753 0.67292964 1.937623e-39
0.44466013 0.21090531 0.67407215 2.6758985e-39
0.44196495 0.21477246 0.67404467 2.3056783e-39
0.43994436 0.21748556 0.67291641 1.9379804e-39
0.43708342 0.22123806 0.6732024 1.8457875e-39
0.43812168 0.21982646 0.67415887 1.937623e-39
0.43454421 0.22480027 0.67476982 3.7829565e-39
0.43591252 0.22290905 0.67336845 2.0305361e-39
0.43334368 0.22660056 0.67342418 5.6282887e-39
0.43135941 0.22944662 0.67340815 6.1821757e-39
0.43022305 0.23197973 0.67398798 6.1821757e-39
0.42989722 0.23538308 0.67454189 6.1821757e-39
0.42963696 0.23810235 0.67498446 6.1821757e-39
0.43133235 0.24757947 0.67210174 6.0874423e-39
0.43471962 0.2506938 0.67447495 6.2703846e-39
0.43706858 0.25287789 0.67322725 6.3618572e-39
0.46035758 0.19415021 0.67676556 8.944781e-39
0.4544068 0.19756444 0.67694253 7.3796329e-39
0.45706767 0.19583872 0.67667949 8.4845315e-39
0.45213413 0.2001594 0.67660248 6.6427909e-39
0.45307225 0.19888355 0.67642486 6.2743699e-39
0.44933236 0.20397148 0.67713487 6.1821757e-39
0.45057452 0.20227933 0.67690039 6.2743699e-39
0.44795373 0.20572197 0.67604148 6.1821757e-39
0.44596624 0.2088284 0.67638922 5.7208416e-39
0.44389617 0.21201442 0.67532724 2.3978725e-39
0.44444892 0.21110097 0.67709196 3.5038459e-39
0.44214228 0.21440899 0.6764304 3.8700991e-39
0.43957162 0.21782279 0.67621869 3.5938779e-39
0.43709183 0.22110458 0.67676967 2.2138442e-39
0.43831825 0.21946073 0.67651451 2.0298159e-39
0.4347713 0.22443864 0.67707419 3.1368739e-39
0.4355095 0.22336146 0.67583811 2.3067615e-39
0.43343019 0.22640526 0.67664248 5.9052315e-39
0.43127522 0.23002803 0.67669296 6.1821757e-39
0.43209082 0.22836939 0.67621255 6.1821757e-39
0.43078366 0.23236181 0.67640471 6.1821757e-39
0.43033302 0.2358204 0.67649603 6.1821757e-39
0.4298842 0.23884392 0.67635965 6.1821757e-39
0.42931208 0.24149618 0.67553681 6.1821757e-39
0.42898774 0.24488492 0.67608833 6.1821757e-39
0.42911744 0.24353009 0.6758678 6.1821757e-39
0.42990732 0.24628142 0.67721713 6.3643907e-39
0.43228543 0.24846928 0.67588419 6.2711119e-39
0.46150631 0.19401562 0.6789223 8.484163e-39
0.46227115 0.19392602 0.68035811 8.3919687e-39
0.45457643 0.19723614 0.67932129 9.6823516e-39
0.45735958 0.19574034 0.67930365 8.6689228e-39
0.45932901 0.1950203 0.67971003 8.0239135e-39
0.45265478 0.19976673 0.67974585 9.4983205e-39
0.45358136 0.19848958 0.67958575 9.590156e-39
0.44961172 0.20367512 0.67933881 7.9324437e-39
0.4511224 0.20171884 0.67955649 8.4848944e-39
0.44835582 0.20535201 0.67959863 8.3927002e-39
0.44657171 0.20789921 0.67983693 8.2083103e-39
0.44330162 0.2127559 0.67896992 5.4341612e-39
0.44465932 0.21076116 0.6794095 4.7931302e-39
0.44207135 0.21441571 0.67921233 4.9739103e-39
0.44022849 0.21689565 0.67958164 3.5020424e-39
0.43727264 0.2208918 0.67958617 3.4098482e-39
0.43856031 0.21911782 0.6787852 2.6737363e-39
0.4356235 0.22327025 0.67921609 2.3989557e-39
0.4335852 0.22624336 0.67972809 7.8391705e-39
0.43150708 0.22973454 0.67987514 8.024638e-39
0.43233693 0.22801033 0.67848027 6.9190177e-39
0.4307676 0.23340921 0.67844534 7.0112119e-39
0.42987579 0.23437631 0.67995012 6.9190177e-39
0.42833808 0.24188678 0.67987514 6.734625e-39
0.42911869 0.2401699 0.67855299 6.7346264e-39
0.42968145 0.24486329 0.67938638 6.1807254e-39
0.43146384 0.24749708 0.67994779 6.1781876e-39
0.43335927 0.24942297 0.67943871 6.5476946e-39
0.43574911 0.25162262 0.67811668 6.7310012e-39
0.43845123 0.25346422 0.67896569 7.1916193e-39
0.46025595 0.19480076 0.68219876 6.9182904e-39
0.46313271 0.19368303 0.68295026 8.5759984e-39
0.46520209 0.19281805 0.68104577 1.0511744e-38
0.45555753 0.19703522 0.68171883 8.4856161e-39
0.45765713 0.19617806 0.68322033 6.9193806e-39
0.45211634 0.2002454 0.682365 8.945511e-39
0.45421949 0.19849993 0.6834026 7.1037705e-39
0.44979477 0.20333993 0.68168873 1.0142967e-38
0.45043725 0.20247488 0.683294 8.7614799e-39
0.44851622 0.20517513 0.68242508 9.7745472e-39
0.44566539 0.20928644 0.68218851 6.5487988e-39
0.4472422 0.20700379 0.68315876 9.0373465e-39
0.44359532 0.21223313 0.68246639 4.1459629e-39
0.44450599 0.21098261 0.68230844 6.7241643e-39
0.44087434 0.2159694 0.68294269 2.3978725e-39
0.4420819 0.21431132 0.68273109 4.6058537e-39
0.43925348 0.21820708 0.68207175 3.041793e-39
0.43719432 0.22111055 0.68237299 3.3180141e-39
0.43805885 0.21985987 0.68227273 3.6860708e-39
0.43461215 0.22484951 0.68267351 5.1651609e-39
0.43575931 0.22319053 0.68253809 2.8588479e-39
0.43349913 0.22651963 0.68275517 8.2083103e-39
0.431651 0.23003399 0.68229926 1.0050773e-38
0.43232033 0.22870591 0.68250811 9.3139306e-39
0.43056291 0.23233271 0.68252677 8.8533154e-39
0.42874691 0.23592311 0.6818549 6.9190163e-39
0.42936462 0.23503625 0.68347651 7.2874372e-39
0.42776373 0.2382414 0.68351388 9.0377053e-39
0.42856213 0.2414929 0.6821667 6.2736469e-39
0.42937171 0.24211763 0.68346459 6.1796407e-39
0.43068561 0.24500959 0.68214375 5.9941579e-39
0.43192559 0.24722265 0.68183947 6.2700231e-39
0.43273726 0.24784887 0.68314099 6.1778275e-39
0.43443167 0.25037432 0.6829735 6.6395287e-39
0.44095284 0.25466299 0.68281424 7.3760105e-39
0.46147043 0.19450188 0.68553627 7.4714628e-39
0.46395206 0.19342537 0.6855979 9.1291708e-39
0.45749274 0.19717418 0.6860953 6.2743713e-39
0.45972505 0.19566348 0.68564701 6.5509596e-39
0.45226747 0.2002535 0.68562609 6.1821757e-39
0.45488915 0.19872276 0.68583697 6.2743713e-39
0.45059901 0.20213473 0.6856612 6.2740112e-39
0.44834256 0.20540611 0.68533462 6.5505953e-39
0.44628552 0.20836847 0.6855765 6.0896213e-39
0.44390613 0.21172108 0.68591595 3.9622933e-39
0.44481161 0.21047246 0.68576431 5.3466557e-39
0.44203034 0.21432507 0.68545389 3.0421503e-39
0.43989876 0.21727999 0.68541789 2.12165e-39
0.43722025 0.2211473 0.68629575 4.1459629e-39
0.43844068 0.21935722 0.68560874 3.1339872e-39
0.43488705 0.22451408 0.68486643 3.5056522e-39
0.43624374 0.22256649 0.68526638 3.7782664e-39
0.4337689 0.2264943 0.68583745 5.9974271e-39
0.43155628 0.23092103 0.68511105 7.7480539e-39
0.43242249 0.22914283 0.68543118 6.6427909e-39
0.43059418 0.23280272 0.68539369 9.0377053e-39
0.42884904 0.23618492 0.68434316 8.3005046e-39
0.42933238 0.23523036 0.6861819 9.590156e-39
0.42797813 0.23784989 0.68580711 9.221735e-39
0.42819667 0.24008192 0.68543971 6.365118e-39
0.42919242 0.24151126 0.68641627 6.3640292e-39
0.43096903 0.24432114 0.68476748 6.2707462e-39
0.44738957 0.24358402 0.68674242 5.0613625e-39
0.43300772 0.24747285 0.68533981 6.0856318e-39
0.43471003 0.24999869 0.68515933 5.9930761e-39
0.43574011 0.25145292 0.68609691 6.4544144e-39
0.4634265 0.19394143 0.68814349 8.1161063e-39
0.46599919 0.19344749 0.68764353 1.1432617e-38
0.45808277 0.19719309 0.68821257 6.1821757e-39
0.46055552 0.19576269 0.68912512 6.2743699e-39
0.45290935 0.20011443 0.68722314 6.1821757e-39
0.454454 0.19942075 0.68869698 6.1821757e-39
0.44932282 0.20376296 0.6876955 6.1821757e-39
0.45103598 0.20153539 0.68845147 6.1821757e-39
0.44802836 0.20557716 0.68845493 6.1821757e-39
0.44599542 0.20877497 0.68866259 5.6286474e-39
0.44323483 0.21263704 0.68831122 2.2138442e-39
0.44413608 0.21139182 0.68816638 2.4904297e-39
0.44173566 0.2147059 0.6885559 2.2134869e-39
0.43966347 0.21759987 0.68886667 1.937623e-39
0.43746293 0.2208052 0.68852645 2.1220101e-39
0.43059629 0.22385328 0.68827778 5.3513444e-39
0.43556237 0.22359002 0.68814397 2.6751797e-39
0.43380189 0.2265107 0.68841797 5.6286474e-39
0.45107618 0.22611603 0.68862695 5.8126785e-39
0.43182766 0.23033307 0.68861628 6.2743699e-39
0.43250221 0.22901621 0.68881446 6.1821757e-39
0.43070599 0.23252511 0.68828708 7.1956018e-39
0.42846113 0.23689622 0.68764091 9.2217364e-39
0.42951885 0.2348319 0.68850976 8.3927002e-39
0.42790282 0.23871695 0.68857574 6.7339019e-39
0.42884982 0.24082133 0.68962586 6.1799995e-39
0.43018842 0.24294084 0.68739289 6.3629418e-39
0.43113196 0.2443426 0.68845701 6.270386e-39
0.43203962 0.24572499 0.68958038 6.0863535e-39
0.4334287 0.2478864 0.68728071 5.9016021e-39
0.43433893 0.24927275 0.68840778 5.8094051e-39
0.43524891 0.25065875 0.68953454 5.9015993e-39
0.44156539 0.25483102 0.68970382 5.9012406e-39
0.46331978 0.19387934 0.69175702 7.655131e-39
0.46678483 0.19444722 0.69161272 1.0602858e-38
0.45783287 0.19742811 0.69119346 6.1821757e-39
0.46062028 0.19558036 0.69204426 6.3662054e-39
0.45246753 0.20077369 0.69181955 6.1821757e-39
0.45482287 0.19934732 0.69114608 6.1821757e-39
0.45615149 0.19839624 0.69251972 6.1821757e-39
0.44955274 0.20324627 0.69123566 6.1821757e-39
0.45059574 0.20204259 0.69088334 6.1821757e-39
0.44815803 0.20538801 0.69128591 6.1821757e-39
0.44598833 0.20882674 0.69127923 6.0896213e-39
0.44708568 0.20711513 0.69126141 6.1821757e-39
0.44359148 0.2121473 0.6916517 3.7829565e-39
0.4444944 0.2109068 0.69150239 4.6137864e-39
0.44239333 0.21379896 0.69184351 3.8751508e-39
0.43995509 0.21721387 0.69144201 3.0450384e-39
0.43734932 0.22100621 0.691329 2.7680956e-39
0.43821472 0.21976879 0.69122338 3.229787e-39
0.43484178 0.22474411 0.69151056 5.5364532e-39
0.43623734 0.22267146 0.69140321 3.7833153e-39
0.43349156 0.22683053 0.69155031 6.0899801e-39
0.43174082 0.2295703 0.6926927 6.1821757e-39
0.43263918 0.22860746 0.6912111 6.1821757e-39
0.43051609 0.2324118 0.69122982 6.5502365e-39
0.42878184 0.23576541 0.69148874 6.4584011e-39
0.42844477 0.23824786 0.69161308 6.1821757e-39
0.42866004 0.2402152 0.69256496 7.5629353e-39
0.42968827 0.24216443 0.6908561 6.1792792e-39
0.43051249 0.24349941 0.69210851 6.0870808e-39
0.43340063 0.24779789 0.69126475 5.9016021e-39
0.43473482 0.24985573 0.69299167 5.9016035e-39
0.43766433 0.25233901 0.69081545 5.9016007e-39
0.46171349 0.19470879 0.69422287 6.7346236e-39
0.46351248 0.19357486 0.69403565 7.654768e-39
0.45806187 0.19693546 0.69470847 6.1821757e-39
0.45988697 0.19582531 0.69446188 6.1821757e-39
0.45262778 0.20024081 0.69544256 6.1821757e-39
0.45443237 0.1991432 0.69519877 6.1821757e-39
0.45624363 0.19804141 0.69495404 6.1821757e-39
0.45072821 0.20203657 0.69412643 6.1821757e-39
0.44840908 0.20541997 0.69434279 6.1821757e-39
0.46075961 0.20638581 0.69344288 3.8740676e-39
0.44610944 0.20879291 0.69454336 6.1821757e-39
0.44353491 0.2124024 0.69433773 6.1821757e-39
0.44458824 0.21101879 0.69524235 6.1821757e-39
0.44180664 0.21490151 0.69451749 5.9977858e-39
0.43987036 0.21767636 0.69417888 6.0899801e-39
0.4373956 0.22128022 0.69385856 6.0899815e-39
0.43843657 0.21990313 0.69476724 6.1821757e-39
0.43595505 0.22348957 0.6944688 6.1821757e-39
0.43388748 0.22639699 0.69502866 6.1821757e-39
0.43130314 0.2298159 0.69471765 6.1821757e-39
0.43253964 0.22808385 0.69398594 6.1821757e-39
0.42994249 0.23257281 0.69479042 6.1821757e-39
0.42959499 0.23489529 0.69449598 6.1821757e-39
0.4292345 0.23861174 0.69422418 6.1821757e-39
0.42981866 0.24217346 0.6945613 7.1019572e-39
0.43133622 0.24483354 0.69336009 6.0867192e-39
0.43257064 0.246833 0.69523585 5.9023266e-39
0.43615788 0.25099453 0.69586915 5.8094065e-39
0.46146053 0.19423117 0.69717395 7.8373516e-39
0.4634935 0.19444615 0.69790566 9.3128404e-39
0.46557313 0.19467777 0.69857514 9.2206434e-39
0.45696911 0.19702746 0.69768089 6.0867234e-39
0.45965868 0.19535296 0.69737738 7.1005096e-39
0.45283502 0.19992843 0.69768798 6.1818156e-39
0.45436186 0.19872157 0.69787568 6.0896185e-39
0.44993716 0.20381893 0.69708753 6.1821757e-39
0.451336 0.20185584 0.69746268 6.0899787e-39
0.44877839 0.20550399 0.69719571 6.0899801e-39
0.44611764 0.20942019 0.69796765 6.0899787e-39
0.44733337 0.20760527 0.69733083 6.0899801e-39
0.44357091 0.21269847 0.69686401 6.1821757e-39
0.44467545 0.21134001 0.69768208 6.0899787e-39
0.44232956 0.21464694 0.69798487 6.0899787e-39
0.44015718 0.21768677 0.69716758 6.0899801e-39
0.44117767 0.21630147 0.69810945 6.1818142e-39
0.43767476 0.22143742 0.69729209 6.0899787e-39
0.43881416 0.21962988 0.69674623 6.1821757e-39
0.43626747 0.22349598 0.69741625 6.0899801e-39
0.43388256 0.22670867 0.69784397 6.0896199e-39
0.43506783 0.22510199 0.6976397 6.1818156e-39
0.43136182 0.23006925 0.69721752 6.1818156e-39
0.43221295 0.2288532 0.69711941 6.1821757e-39
0.43061477 0.23226348 0.69779623 6.0899787e-39
0.42955208 0.23578237 0.69716692 6.0896171e-39
0.42917368 0.23878109 0.69692659 6.3662026e-39
0.43004814 0.24147171 0.69721526 6.1818142e-39
0.4313356 0.24444872 0.69769239 6.0888955e-39
0.43380404 0.24883074 0.69710982 5.9019665e-39
0.43597686 0.25037527 0.69874758 5.5317378e-39
0.43837285 0.25256377 0.69745755 5.9937977e-39
0.45749253 0.1966553 0.7007032 4.6987247e-39
0.46048844 0.19510375 0.69993556 8.485256e-39
0.46324494 0.19541252 0.70082855 8.5763656e-39
0.46601135 0.19572237 0.70172465 8.2090292e-39
0.47001195 0.1966925 0.69952786 8.389438e-39
0.45240754 0.20078467 0.70090973 5.6253866e-39
0.45434129 0.19903527 0.70046324 5.3477151e-39
0.45103365 0.20275462 0.70049441 5.4409939e-39
0.44911313 0.20557296 0.70008832 5.7186668e-39
0.45010263 0.20449892 0.70194614 4.6061703e-39
0.44668058 0.20934124 0.70049709 5.4402708e-39
0.44798145 0.20759493 0.70101017 5.1633182e-39
0.44513842 0.21145016 0.70037085 5.6261096e-39
0.44311523 0.21443075 0.70080042 5.440631e-39
0.44034407 0.21812379 0.70029831 5.5331895e-39
0.44136992 0.21665558 0.70037222 5.7190269e-39
0.43885851 0.22038692 0.70053744 5.3484353e-39
0.43674722 0.22350615 0.70050669 5.3477137e-39
0.43425658 0.22673619 0.70067471 5.440631e-39
0.43172556 0.23093434 0.70049894 5.6257453e-39
0.43258196 0.22902617 0.70039093 5.5331881e-39
0.43089914 0.23285306 0.70055854 5.1625979e-39
0.42976949 0.2357053 0.70025915 4.9771221e-39
0.42953104 0.23822188 0.70021987 4.7916434e-39
0.43045092 0.2412466 0.7000035 5.7150487e-39
0.43162996 0.24416067 0.70065492 4.4210532e-39
0.43321329 0.24729498 0.70065176 4.7912805e-39
0.43638027 0.2500751 0.70066988 4.7909189e-39
0.43906182 0.25189507 0.70149487 4.5128859e-39
0.4385106 0.25211632 0.69981194 5.4384562e-39
0.44287503 0.25433102 0.70054013 4.8831146e-39
0.45819765 0.19707206 0.70343184 4.1408496e-39
0.46013555 0.19643259 0.70343375 6.0787669e-39
0.46305394 0.19639546 0.70365059 5.9872957e-39
0.4659175 0.19674686 0.70439255 5.5208917e-39
0.46829206 0.19709614 0.70462358 6.2570106e-39
0.45280021 0.20054878 0.70284677 4.1430202e-39
0.45447576 0.19975448 0.70364636 4.2330452e-39
0.45653394 0.198226 0.70344275 4.1412097e-39
0.47176805 0.19859049 0.70323718 8.1099644e-39
0.4517163 0.2026052 0.70367759 4.2330452e-39
0.45317423 0.20172714 0.70480567 4.4167134e-39
0.47758377 0.20313463 0.70349008 8.0177688e-39
0.4493168 0.20629539 0.70317072 3.8653473e-39
0.45037133 0.20491481 0.70407099 3.8649858e-39
0.47834182 0.20595166 0.70489502 7.9223207e-39
0.44793931 0.20857863 0.70362455 3.8649872e-39
0.44598517 0.2113518 0.70329225 3.9579059e-39
0.44330183 0.21533956 0.70327204 4.04974e-39
0.44460282 0.21361203 0.70376849 3.864627e-39
0.4417724 0.21758972 0.7035681 3.9571814e-39
0.43957472 0.22067706 0.70365959 3.95718e-39
0.43715629 0.22395171 0.70369285 3.9568198e-39
0.43848729 0.22304559 0.70496714 3.9564597e-39
0.43486738 0.22688025 0.70310885 3.8649872e-39
0.43564668 0.22601731 0.7035591 3.8649858e-39
0.46900693 0.22646932 0.7026087 6.4414019e-39
0.43332693 0.22930671 0.7034629 3.864627e-39
0.43134537 0.23235692 0.70368654 4.1408496e-39
0.43223578 0.23163098 0.70480168 3.77243e-39
0.43080345 0.23510918 0.70328581 3.77243e-39
0.4309597 0.23834458 0.70328814 3.77243e-39
0.43098047 0.24147031 0.70299768 3.9571828e-39
0.43182683 0.24445553 0.70290446 3.77243e-39
0.43223837 0.24486507 0.70479751 3.77243e-39
0.43455392 0.24768914 0.70361418 3.8646256e-39
0.43709412 0.24968624 0.70336568 3.8649872e-39
0.43989232 0.25156718 0.70400333 3.8646242e-39
0.44573769 0.25431696 0.70368201 3.9568213e-39
0.46123648 0.19730908 0.70513368 5.5208917e-39
0.46343276 0.19759601 0.70560271 5.5208917e-39
0.46586496 0.19797339 0.70572966 6.2570106e-39
0.45507163 0.20048675 0.70568347 4.4167134e-39
0.45738253 0.19910468 0.70635968 4.4167134e-39
0.46059796 0.19900756 0.70735836 6.0729809e-39
0.46356416 0.19971435 0.70750022 6.2570106e-39
0.46675196 0.19966005 0.70691895 6.2570106e-39
0.46942997 0.1994306 0.70628476 6.2570106e-39
0.47261024 0.20051327 0.70576662 7.1854774e-39
0.45267308 0.2029407 0.70557797 4.4167134e-39
0.45433652 0.20231795 0.70681 4.6003844e-39
0.45604622 0.20171353 0.70797521 5.1524736e-39
0.46964562 0.20117867 0.70763618 6.2570106e-39
0.4723452 0.20166092 0.70741093 6.5357681e-39
0.47563708 0.20382114 0.70633698 7.6446464e-39
0.44958597 0.20670836 0.70529032 3.77243e-39
0.4514952 0.20539939 0.70667213 4.7844141e-39
0.45317566 0.20416664 0.70732975 5.1524736e-39
0.47563916 0.20579875 0.70758629 6.8090998e-39
0.44902891 0.2086502 0.70666093 4.3245192e-39
0.47621667 0.20800295 0.70799136 6.8090998e-39
0.47875738 0.2093538 0.70679468 6.8123578e-39
0.44650382 0.212356 0.7062887 4.2323249e-39
0.44770554 0.21105111 0.70694703 4.2323249e-39
0.41405407 0.21341592 0.7061227 4.5096321e-39
0.44532526 0.21446534 0.70644355 3.8642655e-39
0.4433338 0.21742693 0.7061888 3.9564597e-39
0.44473714 0.21670878 0.70778555 4.6925786e-39
0.44013265 0.22174464 0.7061671 3.9564597e-39
0.44192559 0.21975668 0.70663178 4.2323249e-39
0.43798685 0.22420736 0.70576483 3.9564597e-39
0.43933606 0.22331087 0.70700741 3.9564597e-39
0.43637058 0.22660632 0.7062254 3.8642655e-39
0.43824822 0.22527415 0.70788842 3.9564597e-39
0.43402445 0.22987588 0.70616859 3.9564597e-39
0.43513995 0.22956903 0.70776987 4.1404894e-39
0.43320274 0.23237996 0.70630229 4.5085489e-39
0.43186942 0.23562177 0.70539451 4.2323249e-39
0.43324122 0.23559563 0.70700407 4.5085489e-39
0.43190295 0.23911867 0.70534027 3.77243e-39
0.43285516 0.23872437 0.70720166 4.5085489e-39
0.43229336 0.24185812 0.70598441 3.77243e-39
0.43328843 0.24498224 0.70650434 4.1404894e-39
0.43510067 0.24556875 0.70783269 4.3245192e-39
0.43595469 0.24741907 0.70646596 4.0482952e-39
0.46060389 0.24850692 0.70609045 6.2570106e-39
0.43846864 0.24939847 0.70626891 3.9564597e-39
0.4420687 0.25145066 0.70691395 4.2326837e-39
0.45450294 0.2511369 0.70781505 6.2570106e-39
0.45754364 0.24982613 0.70695555 6.2570106e-39
0.4487263 0.25462914 0.70535994 4.1408482e-39
0.45804143 0.20051149 0.70871246 5.1524736e-39
0.4602769 0.20082521 0.70909649 6.1648164e-39
0.45571697 0.20299897 0.7084769 5.1524736e-39
0.45754495 0.20244241 0.70946473 5.1524736e-39
0.4604221 0.2021106 0.71013159 5.8885925e-39
0.46372318 0.20224877 0.70976704 6.1648164e-39
0.46669254 0.20254897 0.70951128 5.9807867e-39
0.46966735 0.20284565 0.70927119 5.9807867e-39
0.47249562 0.20296913 0.70843869 6.8090998e-39
0.45248216 0.2067091 0.70839447 5.0606381e-39
0.45466259 0.20571521 0.70936668 5.0606381e-39
0.45674363 0.20478238 0.71026176 5.0606381e-39
0.47156271 0.20547719 0.70980811 6.8090998e-39
0.47411758 0.20610934 0.70855927 6.8090998e-39
0.45165309 0.20870149 0.70916474 5.0606381e-39
0.45372877 0.20803943 0.71025419 5.0606381e-39
0.47364813 0.20736362 0.70924574 6.8090998e-39
0.47527188 0.20906644 0.70936811 5.9807867e-39
0.44901535 0.21209812 0.70912069 4.6925786e-39
0.45085225 0.21085997 0.71006012 4.8766083e-39
0.47611105 0.21045151 0.71063614 5.9807867e-39
0.44603419 0.215455 0.70828623 4.6925786e-39
0.44821048 0.21486624 0.70994598 4.8766083e-39
0.47631663 0.21486968 0.71033776 6.7169056e-39
0.44582024 0.21752167 0.70912445 5.0606381e-39
0.44777584 0.21748555 0.71061802 5.0606381e-39
0.47529349 0.21760195 0.71016818 6.7169056e-39
0.47730321 0.21817778 0.70890558 6.7169056e-39
0.44281054 0.22122917 0.70878333 5.1524736e-39
0.445292 0.22019769 0.70986295 5.1524736e-39
0.47276032 0.22140206 0.71054417 6.7169056e-39
0.47527075 0.2206222 0.70936966 6.7169056e-39
0.47779804 0.21983711 0.70818722 6.7169056e-39
0.4401862 0.22411925 0.70861733 5.1524736e-39
0.4422327 0.22348051 0.7096895 5.1524736e-39
0.44436288 0.22311379 0.71089089 5.2446678e-39
0.47227347 0.22356182 0.71001387 6.6247114e-39
0.47618216 0.22246289 0.70804167 6.2566519e-39
0.43735495 0.22732233 0.70846361 5.1524736e-39
0.43955109 0.22660996 0.7096203 5.1524736e-39
0.44133672 0.22608328 0.71059144 5.1524736e-39
0.46934104 0.22650534 0.71058339 6.6247114e-39
0.47180361 0.22573225 0.70945454 6.6247114e-39
0.43667305 0.22962256 0.70912611 5.1524736e-39
0.43872952 0.22954462 0.71049738 5.2446678e-39
0.46766642 0.22977382 0.71056318 6.7169056e-39
0.46998131 0.2282307 0.70963997 6.4410404e-39
0.43487641 0.23222336 0.70819151 4.4167134e-39
0.43632609 0.23223633 0.70967805 4.9688026e-39
0.43805915 0.23169376 0.71071631 5.2446678e-39
0.46580297 0.23294093 0.71083093 6.7169056e-39
0.46910089 0.23258817 0.70844167 6.4410404e-39
0.43462005 0.23557328 0.70860165 4.4167134e-39
0.43598375 0.23554333 0.71022248 4.5085489e-39
0.46407199 0.23686947 0.7109111 6.7169056e-39
0.4661569 0.23453775 0.71030557 6.7169056e-39
0.43404424 0.23914915 0.70867842 4.4167134e-39
0.43526509 0.23889524 0.71010327 4.4167134e-39
0.43371338 0.2416077 0.70878589 4.6007431e-39
0.43568471 0.24196215 0.7102778 4.9684438e-39
0.46390527 0.241547 0.70866036 6.4410404e-39
0.43392548 0.2438049 0.70844615 4.7844141e-39
0.43650436 0.24486166 0.70939457 4.9684438e-39
0.43833926 0.24507815 0.71027315 5.2446678e-39
0.46220028 0.24404503 0.70870984 6.4410404e-39
0.437832 0.24740545 0.70854932 4.3245192e-39
0.4395709 0.24702157 0.71000957 5.2446678e-39
0.44122344 0.24768998 0.71076924 4.6007431e-39
0.44018176 0.24929443 0.70862401 3.9564597e-39
0.44242355 0.24947248 0.7101469 5.2446678e-39
0.44525254 0.25091684 0.70950401 4.7847728e-39
0.44763368 0.25046039 0.7108379 5.2446678e-39
0.45189017 0.25169057 0.7093032 6.0729809e-39
0.4477976 0.2522082 0.70932782 5.2446678e-39
0.45029116 0.25276712 0.7092483 6.0729809e-39
0.46038669 0.20332432 0.71143216 6.1648164e-39
0.46290374 0.2037555 0.7114073 5.9807867e-39
0.45778865 0.20569319 0.71159893 5.4286975e-39
0.46060407 0.20534727 0.71235394 6.4406816e-39
0.46380299 0.20586401 0.71255803 6.4406816e-39
0.46618855 0.20527032 0.71212733 6.0729809e-39
0.46873114 0.20544899 0.71148193 6.3488461e-39
0.4548026 0.20896049 0.71154022 5.520533e-39
0.45739183 0.20860596 0.71244729 5.796757e-39
0.46006727 0.20843156 0.71290934 6.4406816e-39
0.46345776 0.20857096 0.71307135 6.3488461e-39
0.46691361 0.2087287 0.7131691 6.4410404e-39
0.46959719 0.20827025 0.71269339 6.6250701e-39
0.47225371 0.20906287 0.71211356 6.3488461e-39
0.4522945 0.21116427 0.71119273 5.4286975e-39
0.45420349 0.211365 0.71203429 5.796757e-39
0.45721021 0.21184604 0.71322036 5.8885925e-39
0.46025735 0.21149236 0.71349514 6.3488461e-39
0.46306995 0.21125558 0.71364808 6.3488461e-39
0.46659938 0.21161823 0.71379775 6.5328759e-39
0.46955448 0.21173236 0.71337706 6.6250701e-39
0.47237185 0.21137232 0.71276873 6.6250701e-39
0.47567332 0.21171533 0.71127158 6.7169056e-39
0.45139006 0.21461713 0.71186203 5.7049215e-39
0.45443788 0.21408312 0.7129274 5.796757e-39
0.45795113 0.2138564 0.71384668 6.4406816e-39
0.46706253 0.21548431 0.71394038 6.7169056e-39
0.46910295 0.21522447 0.71341884 6.7169056e-39
0.47232437 0.21453311 0.71242547 6.7169056e-39
0.47582489 0.21322092 0.71105158 6.7169056e-39
0.44922495 0.21779712 0.71172714 5.2446678e-39
0.45159751 0.21768288 0.71275938 5.7049215e-39
0.45432365 0.21710306 0.7137233 5.7049215e-39
0.46724814 0.21770662 0.71366692 6.7169056e-39
0.46935213 0.21819465 0.71305311 6.7169056e-39
0.47154674 0.21728402 0.71231902 6.7169056e-39
0.44580734 0.22193933 0.7111569 5.2446678e-39
0.44850937 0.22019525 0.71199483 5.4286975e-39
0.45167094 0.22054377 0.71339595 5.8885925e-39
0.46367222 0.22198047 0.71399379 6.6250701e-39
0.46647704 0.22043845 0.71356535 6.6250701e-39
0.46978444 0.22053137 0.71241856 6.7169056e-39
0.47227407 0.21975204 0.71125537 6.7169056e-39
0.44582868 0.22367001 0.71196169 5.7045627e-39
0.44868317 0.22333086 0.71272814 5.9807867e-39
0.45148814 0.22327571 0.71367502 5.8885925e-39
0.46383172 0.22418737 0.71375704 6.7169056e-39
0.46640685 0.22309631 0.71325523 6.6247114e-39
0.46941456 0.22344956 0.71172059 6.6247114e-39
0.44085896 0.22794926 0.71134156 5.1524736e-39
0.44304231 0.22621512 0.71169448 5.4286975e-39
0.44573894 0.22659031 0.71251774 6.1648164e-39
0.44871378 0.22662683 0.7131812 5.980428e-39
0.45060062 0.22660291 0.71378332 5.8885925e-39
0.46297371 0.22686364 0.71379167 6.7169056e-39
0.46655887 0.22640696 0.712201 6.6247114e-39
0.44014597 0.23008241 0.71162349 5.3365033e-39
0.44257942 0.22948711 0.71241742 6.0726222e-39
0.44552216 0.22928853 0.71285373 6.1648164e-39
0.44834596 0.22972687 0.71349692 6.0726222e-39
0.46316016 0.22915833 0.71310037 6.6247114e-39
0.46509677 0.22975476 0.71187913 6.7169056e-39
0.43787849 0.23299697 0.71100205 5.2446678e-39
0.43965074 0.23247303 0.71198303 5.4286975e-39
0.44209242 0.23274009 0.71317774 5.8885925e-39
0.44492882 0.23226587 0.71352321 6.2566519e-39
0.4483839 0.23224135 0.71385485 6.2566519e-39
0.46050277 0.2320763 0.71374887 6.7169056e-39
0.46323976 0.23290887 0.71215111 6.7169056e-39
0.46544957 0.23134658 0.71135545 6.7169056e-39
0.43751779 0.23559965 0.71157265 5.2446678e-39
0.43932143 0.23509534 0.71250129 5.520533e-39
0.44156232 0.2351131 0.71358794 5.6127272e-39
0.44561982 0.23680265 0.71395278 6.5328759e-39
0.44727325 0.23574921 0.71389866 6.5328759e-39
0.45824918 0.23610502 0.71381336 6.6247114e-39
0.46115813 0.23522836 0.71276885 6.7169056e-39
0.46374053 0.23528422 0.71140492 6.7169056e-39
0.43665159 0.23887719 0.71168494 4.7847728e-39
0.43932462 0.238276 0.71303499 5.7049215e-39
0.44171017 0.23882636 0.71377456 5.8889512e-39
0.44514608 0.23905589 0.71385366 6.4406816e-39
0.44722968 0.23782988 0.71396577 6.2566519e-39
0.45540321 0.2388014 0.71395564 6.6247114e-39
0.45721483 0.23851094 0.71371007 6.6247114e-39
0.46015581 0.23860705 0.7126112 6.7169056e-39
0.46219534 0.23928587 0.71121764 6.5328759e-39
0.43717226 0.24161498 0.71128041 5.2446678e-39
0.43933356 0.24206595 0.71248198 4.8766083e-39
0.44166589 0.24136229 0.71359324 5.8889512e-39
0.44489396 0.24157313 0.71382743 6.2566519e-39
0.45224988 0.24241963 0.71375966 6.4410404e-39
0.45476347 0.24154654 0.71367991 6.4410404e-39
0.45745441 0.24145997 0.7133491 6.6247114e-39
0.46048522 0.24177101 0.71128428 6.5328759e-39
0.43989635 0.2444496 0.71159649 4.6007431e-39
0.44219875 0.24411078 0.71342915 5.8885925e-39
0.44504085 0.24444637 0.71359998 6.2566519e-39
0.44834524 0.24446376 0.71349812 6.3488461e-39
0.45177788 0.24453634 0.71323335 6.4410404e-39
0.45516959 0.24386904 0.71306437 6.4410404e-39
0.45782021 0.24471727 0.7115519 6.3488461e-39
0.4408164 0.24607831 0.71140838 4.6007431e-39
0.44282186 0.24708086 0.71203887 5.1528323e-39
0.4457649 0.24762402 0.7124778 5.5208917e-39
0.44889277 0.24755551 0.71265596 6.3488461e-39
0.45153716 0.24747726 0.71235085 6.3488461e-39
0.45430931 0.24674791 0.71187395 6.2570106e-39
0.44913334 0.25074565 0.71103239 5.2446678e-39
0.45008528 0.24933404 0.71207392 6.3492063e-39
0.46526885 0.21228176 0.71410877 6.3488461e-39
0.45777151 0.21519396 0.71411669 6.3488461e-39
0.46115151 0.21464571 0.71427119 6.3488461e-39
0.46394563 0.21436782 0.71441573 6.4406816e-39
0.46600124 0.21381176 0.71426749 6.5328759e-39
0.45516944 0.21821751 0.71430922 5.796757e-39
0.45754239 0.21721581 0.71446133 6.3488461e-39
0.46073389 0.21777055 0.71464622 6.4406816e-39
0.46325389 0.21681693 0.71461481 6.5328759e-39
0.46518642 0.21723476 0.71423078 6.6250701e-39
0.45436412 0.22089392 0.71428466 6.0726222e-39
0.45724469 0.22037891 0.71466058 6.3488461e-39
0.46071905 0.22060122 0.71466875 6.5328759e-39
0.46346948 0.21975616 0.71429473 6.6250701e-39
0.45427179 0.22367275 0.71442473 6.2570106e-39
0.45731428 0.22347718 0.71480441 6.3488461e-39
0.46089017 0.22351572 0.7144134 6.6250701e-39
0.45198283 0.22609785 0.71416664 6.0726222e-39
0.45423508 0.22647625 0.7144804 6.2570106e-39
0.45761961 0.22668481 0.71459371 6.4406816e-39
0.46069512 0.22610162 0.71429062 6.7169056e-39
0.45115906 0.22945258 0.71417761 6.1648164e-39
0.45435947 0.22935539 0.71429205 6.4406816e-39
0.45772415 0.2300328 0.7141881 6.4406816e-39
0.4601824 0.2290882 0.71422797 6.5328759e-39
0.44551986 0.2339547 0.71410739 6.2566519e-39
0.44720048 0.23291039 0.71401083 6.2566519e-39
0.45136762 0.23260133 0.71410865 6.4406816e-39
0.45447063 0.23222961 0.71412355 6.4410404e-39
0.45775151 0.23287615 0.71414709 6.5328759e-39
0.44334409 0.23583464 0.714149 6.1648164e-39
0.44554764 0.23536754 0.7140643 6.5328759e-39
0.44825277 0.23498325 0.71405655 6.3484874e-39
0.45109165 0.23574901 0.71428072 6.4410404e-39
0.45418578 0.2353828 0.71430629 6.4410404e-39
0.4569158 0.23482905 0.71416068 6.6247114e-39
0.44315496 0.23768091 0.71402633 6.1648164e-39
0.44819674 0.23869503 0.71414274 6.2566519e-39
0.45099646 0.23851424 0.71442604 6.4406816e-39
0.45416036 0.23850423 0.7141788 6.6247114e-39
0.44791615 0.24143893 0.71415812 6.2566519e-39
0.45083404 0.24109036 0.71425867 6.3488461e-39
0.48033792 0.24100582 0.71585774 6.1771058e-39
0.42946702 0.24193642 0.72825092 4.6025522e-39
0.46894807 0.24083988 0.72793275 6.3488461e-39
0.43676135 0.21619098 0.73304683 6.6424294e-39
0.44912425 0.24068069 0.73334122 4.9778437e-39
