# .PCD v0.7 - Point Cloud Data file format
VERSION 0.7
FIELDS x y z rgb
SIZE 4 4 4 4
TYPE F F F F
COUNT 1 1 1 1
WIDTH 1000
HEIGHT 1
VIEWPOINT 0 0 0 1 0 0 0
POINTS 1000
DATA ascii
0.51550913 -0.067132153 0.64529884 8.8194488e-39
0.5168522 -0.06875813 0.64606154 8.8183684e-39
0.51254851 -0.063652471 0.64692241 8.7254525e-39
0.51385081 -0.065264508 0.64773303 8.7250924e-39
0.50989288 -0.060423814 0.64538407 8.8183684e-39
0.51122653 -0.062038414 0.6461432 8.8176482e-39
0.50815028 -0.058569133 0.6479708 8.7243721e-39
0.50659668 -0.056229342 0.64618433 8.8165678e-39
0.49729609 -0.040005092 0.64786673 9.661454e-39
0.49736708 -0.037754171 0.64638805 9.7486078e-39
0.49886265 -0.036254801 0.6468606 9.1835496e-39
0.50036097 -0.034752719 0.64733398 9.1835496e-39
0.5013817 -0.033253603 0.64716339 9.1835496e-39
0.50274122 -0.03178864 0.64648485 8.9080431e-39
0.50419497 -0.030328169 0.64567184 8.7243721e-39
0.50579607 -0.028821677 0.64601254 8.7243721e-39
0.50740069 -0.02731188 0.64635408 7.7141817e-39
0.5116933 -0.027302776 0.64753377 8.6577726e-39
0.50900888 -0.025798779 0.64669633 5.1427878e-39
0.51062059 -0.024282351 0.64703929 5.6938008e-39
0.51230371 -0.022768714 0.64728296 7.8060172e-39
0.5140031 -0.021252371 0.64750957 7.7141817e-39
0.5157001 -0.019776467 0.64638257 5.9693073e-39
0.51745689 -0.018254647 0.64654034 5.4182943e-39
0.52012306 -0.015965201 0.64674675 7.3468397e-39
0.54277819 -0.015587751 0.64677507 8.9429761e-39
0.52359301 -0.012928609 0.64580977 5.5101298e-39
0.52701771 -0.0098316614 0.6463272 8.2651947e-39
0.5295577 -0.0074970573 0.64677286 8.7243721e-39
0.53210759 -0.0051532062 0.64722037 8.7243721e-39
0.53567219 -0.0020225747 0.64760673 8.7243721e-39
0.538311 0.00033771992 0.64796293 8.7243721e-39
0.54022676 0.0018689055 0.64528304 8.7243721e-39
0.54196054 0.0034570098 0.64557499 8.7243721e-39
0.54369867 0.0050489549 0.64586753 8.7243721e-39
0.54544085 0.0066447612 0.64616084 8.7243721e-39
0.54718733 0.0082444362 0.64645481 8.7243721e-39
0.54893804 0.0098479977 0.64674962 8.7243721e-39
0.55069971 0.011455326 0.64703584 8.7243721e-39
0.55339301 0.013873635 0.6474095 8.7243721e-39
0.5570401 0.017111484 0.6478548 8.7243721e-39
0.55807954 0.017913781 0.64509946 8.7243721e-39
0.55991775 0.019545002 0.6453191 8.7243721e-39
0.56268483 0.022000533 0.64564991 8.7243721e-39
0.56545764 0.024464794 0.64598739 8.7243721e-39
0.56729615 0.026113346 0.64623523 8.7243721e-39
0.56913662 0.027766172 0.64648747 8.7243721e-39
0.5709632 0.029423047 0.64676487 8.7243721e-39
0.57279444 0.031084128 0.64704311 8.7243721e-39
0.57463038 0.032749429 0.64732194 8.7243721e-39
0.57649165 0.034419425 0.64757448 8.7243721e-39
0.57841367 0.036095195 0.64775521 8.7243721e-39
0.58034104 0.037775695 0.64793646 8.7243721e-39
0.43871215 0.18297309 0.64742297 5.2529859e-39
0.46258807 0.19446237 0.64601082 7.3799944e-39
0.45745206 0.19741175 0.6461165 6.1821757e-39
0.46034837 0.19569565 0.64551193 6.458764e-39
0.45220006 0.20026964 0.64649105 6.1821757e-39
0.45418277 0.19916746 0.64596832 6.1821757e-39
0.4495936 0.20280333 0.64667875 6.1821757e-39
0.45045924 0.20146309 0.6466186 6.1821757e-39
0.44678575 0.2069339 0.64582592 6.1821757e-39
0.44812506 0.20510705 0.64706004 6.1821757e-39
0.44555515 0.20884758 0.64651668 6.1821757e-39
0.44357398 0.21160716 0.64568567 6.1821757e-39
0.44428682 0.21073662 0.64727622 6.1821757e-39
0.4406907 0.21593881 0.64782429 6.1821757e-39
0.44201079 0.21392326 0.64649159 6.1821757e-39
0.43950072 0.2174819 0.64612609 6.1821757e-39
0.43728268 0.22067961 0.64668047 6.1821757e-39
0.43487 0.22392234 0.64665079 6.1821757e-39
0.43581709 0.22266695 0.64640844 6.1821757e-39
0.43197608 0.22788751 0.64607167 6.1821757e-39
0.43336773 0.22588015 0.64645529 6.1821757e-39
0.43071371 0.22970444 0.64688098 6.1821757e-39
0.43249458 0.2280803 0.6467002 1.0694693e-38
0.42883557 0.23316595 0.64595437 6.1821757e-39
0.42952442 0.23180133 0.64615023 6.1821757e-39
0.42812088 0.23498911 0.64722204 6.1821757e-39
0.42813033 0.24155927 0.64720529 6.1821757e-39
0.42877179 0.24336134 0.64606744 6.1821757e-39
0.42990091 0.24416374 0.64690137 6.2732853e-39
0.43127361 0.24682799 0.64589339 6.6388056e-39
0.43232709 0.24859357 0.64545393 7.099781e-39
0.4338702 0.25035644 0.64557433 6.6388042e-39
0.43573308 0.25229675 0.64514351 6.8224752e-39
0.51694489 -0.32535726 0.64864898 2.8599577e-39
0.51587951 -0.323048 0.65020126 2.9521589e-39
0.51602387 -0.32157505 0.64999098 3.5053467e-39
0.51686591 -0.31942448 0.65012097 3.1369145e-39
0.51734626 -0.31660163 0.64942187 3.1369145e-39
0.51815939 -0.31363598 0.64959741 2.8599577e-39
0.51914561 -0.31278998 0.65087748 3.5057082e-39
0.51866478 -0.31160736 0.64886373 2.8599577e-39
0.51924819 -0.31046775 0.64982551 3.0443559e-39
0.51995796 -0.3078061 0.64970261 2.8599577e-39
0.52088171 -0.30489969 0.64972198 2.9525176e-39
0.52176172 -0.30195951 0.64980805 2.8599577e-39
0.52265066 -0.29839984 0.64920461 2.8599577e-39
0.52339822 -0.29598832 0.65016145 2.8599577e-39
0.52369165 -0.29300597 0.6497401 2.8599577e-39
0.52398527 -0.29002008 0.64931864 2.8599577e-39
0.52427924 -0.28703073 0.64889663 2.8599577e-39
0.52468538 -0.28378108 0.64966726 2.8599577e-39
0.52479446 -0.28179115 0.648157 2.8599577e-39
0.52509141 -0.28053269 0.65043962 2.8599577e-39
0.5253861 -0.27753767 0.65001822 2.9517932e-39
0.52568102 -0.2745392 0.64959645 3.2283773e-39
0.52594268 -0.27151802 0.64922214 5.3484942e-39
0.52638763 -0.26812878 0.64948767 1.1247871e-38
0.52677035 -0.26533306 0.64939177 1.1708845e-38
0.52727103 -0.26213539 0.65003121 1.1708845e-38
0.52764213 -0.25916421 0.6495024 1.1708845e-38
0.52792078 -0.25693315 0.64910531 1.1708845e-38
0.52810669 -0.25544435 0.64884031 1.1708845e-38
0.52851427 -0.25298762 0.64961195 1.1708845e-38
0.52889723 -0.25018093 0.64951831 1.1708845e-38
0.52936083 -0.24678858 0.64976192 1.1616648e-38
0.52968168 -0.24377331 0.64930642 1.1616289e-38
0.52992249 -0.24150951 0.64896446 1.1616648e-38
0.53027272 -0.23885034 0.64936835 1.1339701e-38
0.53060377 -0.23600626 0.64934951 1.1340061e-38
0.5309732 -0.23353137 0.65017831 1.1247505e-38
0.53107584 -0.23198976 0.65003324 1.1431897e-38
0.53118837 -0.229656 0.64987397 1.1432257e-38
0.53133857 -0.22654277 0.6496616 1.1616649e-38
0.53149265 -0.22342952 0.64944369 1.1708845e-38
0.53167254 -0.22032648 0.64918923 1.1708845e-38
0.53200871 -0.21686061 0.64961416 1.1708845e-38
0.53224623 -0.21396349 0.64972878 1.1708845e-38
0.5323481 -0.21116781 0.64913464 1.1708845e-38
0.53258264 -0.20853248 0.64925373 1.1708845e-38
0.53291297 -0.2060459 0.65013909 1.1708845e-38
0.5333181 -0.2030322 0.64956814 1.1708845e-38
0.54302609 -0.20310785 0.6507113 9.7730983e-39
0.53374428 -0.20082149 0.64896762 1.1708845e-38
0.53402889 -0.19934557 0.64856654 1.1708845e-38
0.53438765 -0.19706009 0.64986157 1.1708845e-38
0.5349943 -0.19370037 0.64990991 1.1524457e-38
0.53556526 -0.19073814 0.64910829 9.2203085e-39
0.53617334 -0.18737136 0.64915425 3.3209302e-39
0.53672963 -0.18436921 0.65017509 2.8599577e-39
0.53781527 -0.18118401 0.64955574 2.8599577e-39
0.53890157 -0.17838375 0.64983833 2.8599577e-39
0.53959501 -0.17624155 0.6488719 2.8599577e-39
0.5402379 -0.17467238 0.64932483 2.8599577e-39
0.54111373 -0.17238507 0.6494568 2.8599577e-39
0.54220504 -0.16957147 0.6497395 2.8599577e-39
0.54353172 -0.16603254 0.64969987 2.8599577e-39
0.54443055 -0.16353703 0.6493566 2.8599577e-39
0.54540235 -0.16106102 0.64891517 2.8599577e-39
0.51769167 -0.099670149 0.65066588 1.1524092e-38
0.53611815 -0.084370814 0.64968204 9.2782662e-39
0.53253847 -0.08248879 0.64931655 9.1835496e-39
0.52694857 -0.078733258 0.6504907 8.8165678e-39
0.52932405 -0.080577724 0.64981413 9.1835496e-39
0.52328944 -0.075274162 0.65031761 8.8165678e-39
0.52511632 -0.077001169 0.65040404 8.8165678e-39
0.52146786 -0.073552221 0.65023142 8.8165678e-39
0.51797843 -0.070148639 0.64986008 8.7243721e-39
0.51965171 -0.071835317 0.65014547 8.8165678e-39
0.51515442 -0.066878028 0.64854455 8.7247323e-39
0.51651531 -0.068503186 0.64927489 8.7243721e-39
0.5120483 -0.063382521 0.65037906 8.7243721e-39
0.50945568 -0.06017331 0.64876199 8.7243721e-39
0.51075137 -0.061777174 0.64957017 8.7243721e-39
0.47742766 -0.05757799 0.64919746 9.1914726e-39
0.50561571 -0.05590485 0.65037519 8.7243721e-39
0.5036329 -0.053507306 0.64924753 8.8162076e-39
0.50114095 -0.050181165 0.6502561 8.8169279e-39
0.49985301 -0.047043875 0.64946663 8.8169279e-39
0.49719971 -0.042176858 0.65074468 1.1064197e-38
0.49856639 -0.043909557 0.64867783 8.8169279e-39
0.49773365 -0.040699773 0.64993715 1.0971641e-38
0.49874723 -0.039213128 0.6497699 9.466979e-39
0.49989742 -0.037351824 0.6493994 9.1835496e-39
0.50125998 -0.036224868 0.65007746 9.1835496e-39
0.5025512 -0.033982951 0.64950365 9.1835496e-39
0.5380975 -0.034272477 0.649593 8.0815237e-39
0.50384629 -0.031734832 0.64892852 9.1835496e-39
0.50521636 -0.030599466 0.64960831 9.1835496e-39
0.50638139 -0.028717069 0.64923602 8.9080431e-39
0.5079031 -0.027202258 0.64969927 5.0509523e-39
0.50903624 -0.025698286 0.64938229 4.4999393e-39
0.51068634 -0.024188831 0.64966607 6.7958267e-39
0.51247072 -0.022687528 0.64975893 8.1733592e-39
0.51426023 -0.021181885 0.64985222 5.7856363e-39
0.51695496 -0.018914688 0.64999247 6.5203202e-39
0.52056527 -0.01587712 0.65018052 6.3366492e-39
0.52398294 -0.012844268 0.64932173 6.8876622e-39
0.5265162 -0.010527106 0.64975464 8.5407011e-39
0.52808988 -0.0090028029 0.64886439 8.7243721e-39
0.52978194 -0.0074477158 0.64916402 8.7243721e-39
0.53232801 -0.0051077083 0.64961493 8.7243721e-39
0.53565794 -0.0019718343 0.65032816 8.7243721e-39
0.53818786 0.00038798712 0.65083301 8.7243721e-39
0.5400362 0.0019181799 0.64825696 8.7243721e-39
0.54176927 0.0035023186 0.64854652 8.7243721e-39
0.54352367 0.0050897617 0.64881325 8.7243721e-39
0.5452823 0.0066811685 0.64908063 8.7243721e-39
0.54704541 0.0082765492 0.64934862 8.7243721e-39
0.54881293 0.0098759225 0.64961737 8.7243721e-39
0.55058479 0.011479304 0.64988691 8.7243721e-39
0.55328596 0.013891933 0.65024585 8.7243721e-39
0.55692458 0.01712252 0.65069759 8.7243721e-39
0.55978799 0.019550601 0.6481896 8.7243721e-39
0.56254852 0.022000533 0.64852536 8.7243721e-39
0.56530529 0.024459107 0.64888024 8.7243721e-39
0.56711817 0.026103688 0.64915931 8.7243721e-39
0.56893557 0.027752422 0.64943904 8.7243721e-39
0.57075763 0.029405326 0.64971954 8.7243721e-39
0.57258427 0.031062413 0.65000075 8.7243721e-39
0.57441556 0.032723702 0.65028274 8.7243721e-39
0.57625145 0.034389205 0.65056539 8.7243721e-39
0.57812262 0.036059707 0.65080899 8.7243721e-39
0.58004469 0.037735924 0.65099406 8.7243721e-39
0.58324295 0.040305961 0.64820933 8.7243721e-39
0.58615595 0.042845793 0.64848328 8.7243721e-39
0.58811206 0.044545688 0.64865786 8.7243721e-39
0.59008539 0.046250951 0.64881825 8.7243721e-39
0.46319821 0.19390869 0.65056461 9.7730997e-39
0.45241266 0.19973612 0.65031898 6.1821757e-39
0.45368963 0.19835459 0.6509698 6.1821757e-39
0.44932878 0.20375612 0.64991784 6.1821757e-39
0.45050344 0.20198436 0.64980215 6.1821757e-39
0.44789204 0.20580049 0.64954996 6.1821757e-39
0.44585538 0.20871361 0.64927298 6.1821757e-39
0.44375035 0.21175635 0.64959013 6.1821757e-39
0.44465154 0.21045402 0.64945489 6.1821757e-39
0.44194898 0.21435082 0.64986998 6.1821757e-39
0.43937087 0.21794194 0.64915997 6.1821757e-39
0.43723238 0.22091943 0.64957845 6.1821757e-39
0.43817985 0.21966006 0.64934462 6.1821757e-39
0.4343909 0.2246756 0.65030056 6.1821757e-39
0.43573475 0.22288391 0.64936858 6.1821757e-39
0.43301171 0.2264386 0.64919364 6.1821757e-39
0.43105415 0.22953768 0.64957362 6.1821757e-39
0.42968544 0.23226787 0.64916396 6.1821757e-39
0.42809474 0.23568363 0.64938772 6.1821757e-39
0.42739764 0.23856966 0.64944547 6.1821757e-39
0.43250936 0.24907191 0.65077394 6.1785505e-39
0.43506038 0.25138164 0.64913583 6.6380839e-39
0.43731904 0.25298986 0.65083086 7.0990635e-39
0.5179112 -0.32532901 0.65266263 3.2291143e-39
0.51910818 -0.32462972 0.65363151 3.5057082e-39
0.51763868 -0.32236597 0.65170658 3.5057082e-39
0.51932621 -0.32242045 0.65331739 3.5057082e-39
0.51849139 -0.31943589 0.65182364 3.5057082e-39
0.52001679 -0.31923807 0.65322155 3.5057082e-39
0.5187819 -0.31648421 0.65140343 3.5057082e-39
0.52047169 -0.31653783 0.65301621 3.5057082e-39
0.5204109 -0.31371957 0.65229475 3.5057082e-39
0.52105594 -0.31062344 0.65217602 3.5057082e-39
0.52134848 -0.30766112 0.65175521 3.5057082e-39
0.52220613 -0.30471265 0.65187275 3.5057082e-39
0.52249974 -0.3017433 0.65145123 3.5057082e-39
0.52294248 -0.29867485 0.6526143 3.0443559e-39
0.5237093 -0.29550943 0.65241635 2.8599577e-39
0.52397418 -0.29251379 0.65203762 2.8599577e-39
0.5244301 -0.28930253 0.65273297 2.8599577e-39
0.52469683 -0.28630346 0.65235209 2.8599577e-39
0.52515173 -0.28309089 0.65305126 2.8599577e-39
0.52541751 -0.28008664 0.65267241 2.8599577e-39
0.52568364 -0.27707931 0.65229326 3.3205715e-39
0.52594995 -0.27406874 0.65191376 5.8094667e-39
0.52634352 -0.27160963 0.65269953 1.0694704e-38
0.52664334 -0.26904023 0.65272218 1.1616651e-38
0.52703786 -0.26615733 0.65305984 1.1708845e-38
0.52738798 -0.26318568 0.65256268 1.1524452e-38
0.52774215 -0.26021183 0.65205991 1.1524454e-38
0.52826238 -0.25703022 0.6526674 1.069397e-38
0.52864343 -0.25423196 0.65257639 1.0325187e-38
0.52913821 -0.25086644 0.65277398 1.0048599e-38
0.52947652 -0.24787107 0.65229535 1.0694332e-38
0.52977431 -0.24485047 0.65187418 1.023299e-38
0.53023446 -0.24163234 0.65256888 9.0330039e-39
0.53056186 -0.23879534 0.65255541 9.1255611e-39
0.53090149 -0.23613666 0.65297377 8.20216e-39
0.53105795 -0.23462592 0.65275329 7.6486219e-39
0.53129905 -0.23236108 0.65241343 8.2025174e-39
0.53156686 -0.22931188 0.65203619 9.2173952e-39
0.53186059 -0.22583361 0.65251857 1.0601414e-38
0.53200763 -0.22325225 0.65231144 1.1247505e-38
0.5322209 -0.22061577 0.6524595 1.1524452e-38
0.53242928 -0.21797745 0.65261477 1.1708845e-38
0.53270781 -0.21502265 0.65312028 1.1708845e-38
0.53288102 -0.21191943 0.65287697 1.1708845e-38
0.53305447 -0.20881408 0.65263349 1.1708845e-38
0.53322804 -0.20570672 0.65238976 1.1708845e-38
0.53347093 -0.20262717 0.65204871 1.1708845e-38
0.53387034 -0.19961147 0.65148807 1.1708845e-38
0.53410232 -0.19924724 0.6538502 1.1708845e-38
0.5344646 -0.19621602 0.65334344 1.1616651e-38
0.53496152 -0.19323598 0.65264839 1.0694704e-38
0.53553116 -0.1902796 0.65185153 6.0860508e-39
0.53608584 -0.18728538 0.65286714 3.0439874e-39
0.53683168 -0.18477775 0.65272301 2.8599577e-39
0.53729022 -0.18336131 0.65208399 2.8599577e-39
0.53814334 -0.18127978 0.6526866 2.8599577e-39
0.53926158 -0.17810407 0.65202868 2.8599577e-39
0.53995442 -0.17596447 0.65106654 2.8599577e-39
0.54051083 -0.17496163 0.65298128 2.8599577e-39
0.54157144 -0.17174904 0.65240824 2.8599577e-39
0.54258156 -0.16891068 0.6528033 2.8599577e-39
0.54339391 -0.1667949 0.65168357 2.8599577e-39
0.54438424 -0.16354351 0.65300322 2.8599577e-39
0.54564303 -0.16076525 0.65127468 2.8599577e-39
0.54719651 -0.15992749 0.65317011 2.8599577e-39
0.53715253 -0.084248453 0.65227592 9.2793466e-39
0.53357416 -0.082368925 0.65190381 9.1835496e-39
0.52716577 -0.078563578 0.65287828 9.1835496e-39
0.53035998 -0.080460429 0.65239227 9.1835496e-39
0.51764083 -0.069890626 0.65305382 8.7243721e-39
0.5191018 -0.071533829 0.65364075 8.8162076e-39
0.51472557 -0.066611841 0.65188277 8.7243721e-39
0.51618201 -0.068249963 0.65246779 8.7243721e-39
0.51155114 -0.063114263 0.6538142 8.7243721e-39
0.51334625 -0.064989336 0.65118891 8.7243721e-39
0.51025391 -0.061513297 0.65301305 8.7243721e-39
0.50826412 -0.05910724 0.65188134 8.7243721e-39
0.50441813 -0.054854177 0.65351081 8.8162076e-39
0.50244367 -0.052466329 0.65238476 8.8162076e-39
0.49708891 -0.045107558 0.65363139 1.1064918e-38
0.49762136 -0.043637261 0.65282917 1.1064557e-38
0.49863237 -0.042157162 0.65266514 1.0879446e-38
0.49950591 -0.040185101 0.65180498 9.6549716e-39
0.50113875 -0.039181743 0.65297759 9.1835496e-39
0.50220525 -0.036686141 0.65228772 8.9998786e-39
0.50371844 -0.034711864 0.65184045 9.1835496e-39
0.50426722 -0.033160344 0.65237886 8.7243721e-39
0.50585258 -0.030886771 0.65273666 6.4284847e-39
0.50773251 -0.027858218 0.65266573 5.4182943e-39
0.50933868 -0.025624722 0.65165162 6.0611427e-39
0.51076925 -0.024097305 0.65225661 7.8978527e-39
0.51262128 -0.022605222 0.6522491 7.5305107e-39
0.51447922 -0.021108404 0.65224159 4.1325973e-39
0.51724839 -0.018851297 0.65227306 7.4386752e-39
0.52086049 -0.015818765 0.65245795 5.6938008e-39
0.52350438 -0.013527803 0.65270948 7.8060172e-39
0.52596682 -0.011214007 0.6532371 8.7243721e-39
0.52887803 -0.0084118107 0.65224463 8.7243721e-39
0.53236091 -0.0050526913 0.65226424 8.7243721e-39
0.53554416 -0.0019165045 0.6531775 8.7243721e-39
0.53929013 0.0014698909 0.65288359 8.7243721e-39
0.54167557 0.0035440251 0.65136993 8.7243721e-39
0.5434258 0.0051279366 0.65163958 8.7243721e-39
0.54518038 0.0067157941 0.65190995 8.7243721e-39
0.54693937 0.0083076078 0.65218091 8.7243721e-39
0.54870272 0.0099033965 0.65245259 8.7243721e-39
0.55047047 0.011503173 0.65272498 8.7243721e-39
0.55317944 0.01391015 0.65306944 8.7243721e-39
0.55681288 0.017133482 0.65352321 8.7243721e-39
0.5596149 0.019558858 0.65244198 8.7243721e-39
0.56242937 0.02200054 0.65136552 8.7243721e-39
0.56521046 0.0244537 0.65168446 8.7243721e-39
0.56701714 0.02609464 0.65196919 8.7243721e-39
0.56882846 0.027739702 0.65225452 8.7243721e-39
0.57064426 0.029388901 0.65254062 8.7243721e-39
0.57246464 0.031042255 0.6528275 8.7243721e-39
0.57428968 0.032699779 0.65311497 8.7243721e-39
0.57611918 0.034361489 0.65340328 8.7243721e-39
0.57798541 0.036028195 0.65365094 8.7243721e-39
0.57985723 0.037699331 0.65389848 8.7243721e-39
0.5819869 0.039417312 0.65116096 8.7243721e-39
0.583938 0.041103654 0.65132391 8.7243721e-39
0.58687603 0.043642934 0.65156913 8.7243721e-39
0.59899324 0.043663085 0.65349734 8.7243721e-39
0.58982545 0.046192035 0.6518153 8.7243721e-39
0.47497857 0.17539501 0.65362847 7.469295e-39
0.45763457 0.19424078 0.65275514 7.9328011e-39
0.46584666 0.19413841 0.65179002 8.0210198e-39
0.45432267 0.19745705 0.65269017 6.1821757e-39
0.45624828 0.19558655 0.65227401 6.1821757e-39
0.4518427 0.20004077 0.65265626 6.1821757e-39
0.44953847 0.20342141 0.65234596 6.1821757e-39
0.45047516 0.20191035 0.65355098 6.1821757e-39
0.44837928 0.20519041 0.65243894 6.1821757e-39
0.44629762 0.20833698 0.65293467 6.1821757e-39
0.44317192 0.21275099 0.65197068 6.1821757e-39
0.44462055 0.21073616 0.65229547 6.1821757e-39
0.44185907 0.21459457 0.6528132 6.1821757e-39
0.44011155 0.2170244 0.6525473 6.1821757e-39
0.437114 0.22112527 0.65258229 6.1821757e-39
0.43845135 0.21931978 0.65167588 6.1821757e-39
0.43470818 0.22434765 0.65255022 6.1821757e-39
0.43563932 0.22309396 0.65233415 6.1821757e-39
0.43344942 0.22600533 0.65287089 6.1821757e-39
0.43136939 0.22951914 0.6527651 6.1821757e-39
0.43003044 0.23254803 0.6523062 6.1821757e-39
0.42877328 0.23575783 0.65170896 6.1821757e-39
0.42955649 0.23565063 0.65313768 6.1821757e-39
0.42815647 0.23875831 0.65185899 6.1821757e-39
0.42922759 0.23838565 0.65371436 6.1821757e-39
0.42788324 0.24103515 0.65234023 6.1821757e-39
0.42787141 0.24327235 0.65329647 6.1821757e-39
0.42997724 0.24677922 0.65240002 6.0870836e-39
0.43475819 0.25067276 0.65246361 6.4540542e-39
0.5188179 -0.32757235 0.65404975 2.2142127e-39
0.52043146 -0.3283627 0.65576398 2.675565e-39
0.52072269 -0.3254205 0.65534669 3.5057082e-39
0.52101421 -0.3224749 0.65492886 3.5057082e-39
0.52146965 -0.31977785 0.6547246 3.5057082e-39
0.52216196 -0.31659144 0.65462953 3.5057082e-39
0.52232695 -0.31355101 0.65439355 2.8599577e-39
0.52233517 -0.3104057 0.65438175 2.8599577e-39
0.52234352 -0.30726033 0.65436983 2.8599577e-39
0.5223518 -0.30411485 0.65435797 2.8599577e-39
0.52238429 -0.30098459 0.65431154 2.8599577e-39
0.52295756 -0.29830477 0.65617782 2.8599577e-39
0.52398628 -0.29501113 0.6547119 2.8599577e-39
0.52443582 -0.29259074 0.65541285 2.8599577e-39
0.52486902 -0.29016206 0.6561389 2.8599577e-39
0.52513403 -0.28716952 0.65576267 2.8599577e-39
0.52539927 -0.28417382 0.65538621 2.8599577e-39
0.52566469 -0.28117499 0.65500921 2.9517932e-39
0.52612293 -0.27797019 0.65569931 4.4269064e-39
0.52639365 -0.27496982 0.65531576 1.0326285e-38
0.52686536 -0.27177206 0.65598881 1.1708845e-38
0.52714074 -0.26876956 0.65559936 1.1708845e-38
0.52741641 -0.26576388 0.65520936 1.1616649e-38
0.52772003 -0.26277027 0.65477991 1.0140073e-38
0.52815473 -0.26162356 0.65684462 7.4638733e-39
0.52798533 -0.26054341 0.65440464 9.4017864e-39
0.52832383 -0.25927934 0.65571308 8.1110462e-39
0.52875859 -0.25642043 0.65599358 8.1117721e-39
0.52911311 -0.25344649 0.65549397 8.7578632e-39
0.52946806 -0.25046843 0.65499377 8.388359e-39
0.52993774 -0.24726367 0.65567118 8.3887177e-39
0.53023499 -0.24424951 0.65525299 8.0188534e-39
0.53068578 -0.24103408 0.65595925 8.4801945e-39
0.53090918 -0.23877026 0.65564567 8.7578632e-39
0.53105813 -0.23725994 0.65543634 8.5727502e-39
0.53128183 -0.23499264 0.65512234 7.8333803e-39
0.53158045 -0.23196667 0.65470308 7.6489863e-39
0.53196061 -0.22950701 0.65550792 8.1106889e-39
0.53224832 -0.22691448 0.65555125 8.2954389e-39
0.53255379 -0.22397864 0.65601647 7.1872878e-39
0.53267336 -0.22086084 0.6558491 6.818141e-39
0.53284526 -0.21776575 0.65560865 8.2943543e-39
0.53301829 -0.21466911 0.65536666 1.0324466e-38
0.53319144 -0.21157038 0.65512449 1.1431897e-38
0.53336465 -0.20846958 0.65488207 1.1708844e-38
0.53369266 -0.20519723 0.65576106 1.1708845e-38
0.53382546 -0.20241968 0.65512961 1.1708845e-38
0.53409964 -0.20116732 0.6565308 1.1708845e-38
0.53437078 -0.19889992 0.65615284 1.1708845e-38
0.53473264 -0.19587322 0.65564859 1.1340425e-38
0.53509504 -0.19284229 0.6551435 6.6392176e-39
0.53556514 -0.18996872 0.65537947 3.1361816e-39
0.53610706 -0.18803862 0.65640891 2.8599577e-39
0.53659117 -0.18584493 0.65573668 2.8599577e-39
0.53738689 -0.18376896 0.65463173 2.8599577e-39
0.53786361 -0.1819357 0.65664363 2.8599577e-39
0.53917426 -0.17845309 0.65483046 2.8599577e-39
0.53962338 -0.17661479 0.65688068 2.8599577e-39
0.54015869 -0.17522053 0.65614277 2.8599577e-39
0.54096401 -0.17312348 0.65503281 2.8599577e-39
0.54194987 -0.16988674 0.65634632 2.8599577e-39
0.54275864 -0.16777937 0.65523571 2.8599577e-39
0.54329926 -0.16637063 0.65449327 2.8599577e-39
0.54401624 -0.16383348 0.65618044 2.8599577e-39
0.54482961 -0.16171291 0.6550675 2.8599577e-39
0.54774153 -0.15973905 0.65509963 2.8599577e-39
0.55029988 -0.15825391 0.65695918 2.8599577e-39
0.52785546 -0.07848721 0.65458834 9.1835496e-39
0.52433598 -0.076640941 0.65421349 9.1835496e-39
0.52056521 -0.073179595 0.65422845 8.8162076e-39
0.52216041 -0.074852653 0.65463179 8.8162076e-39
0.51812983 -0.070471019 0.65638489 8.7243721e-39
0.51513791 -0.067183882 0.65533066 8.7243721e-39
0.51294839 -0.064733945 0.65447211 8.7243721e-39
0.50993001 -0.061279759 0.65618497 8.7243721e-39
0.5113861 -0.062903956 0.65674841 8.7243721e-39
0.50778198 -0.058853768 0.65529531 8.7243721e-39
0.50496984 -0.05555151 0.65539598 8.7243721e-39
0.50208545 -0.052250583 0.6556254 8.7243721e-39
0.49905482 -0.048738997 0.65519279 8.7243721e-39
0.49714684 -0.046509065 0.65625179 8.7243721e-39
0.49698216 -0.044946671 0.65649891 1.0511382e-38
0.49829948 -0.043586433 0.65452147 1.0510663e-38
0.49917877 -0.041248012 0.6559087 9.2894303e-39
0.50138408 -0.037533633 0.65531856 8.7243721e-39
0.50293106 -0.034498055 0.65571821 8.0815237e-39
0.50399971 -0.03295169 0.65683073 7.1631687e-39
0.50503969 -0.031517331 0.65529275 6.5203202e-39
0.50618404 -0.02997531 0.65629959 3.5815844e-39
0.50723118 -0.028531302 0.65475678 4.6836103e-39
0.5091126 -0.025985055 0.65558648 8.2651947e-39
0.51168829 -0.023253506 0.65496337 6.1529782e-39
0.51446617 -0.02101526 0.65495855 6.4284847e-39
0.51725888 -0.018765172 0.65495372 6.9794977e-39
0.52006334 -0.016505547 0.65494895 5.0509523e-39
0.52189779 -0.014989577 0.65500736 7.2550042e-39
0.52349007 -0.01345177 0.65541893 8.5407011e-39
0.52584434 -0.011136128 0.65609574 8.7243721e-39
0.52902913 -0.0080713024 0.65561235 8.7243721e-39
0.53222209 -0.0049888501 0.65514332 8.7243721e-39
0.53543091 -0.0018614279 0.65601385 8.7243721e-39
0.53888237 0.0012694085 0.65657032 8.7243721e-39
0.5415346 0.0036062524 0.65558136 8.7243721e-39
0.54332817 0.0051659476 0.65445358 8.7243721e-39
0.54507893 0.0067502623 0.65472645 8.7243721e-39
0.54683375 0.0083385259 0.65500039 8.7243721e-39
0.54859298 0.0099307457 0.65527499 8.7243721e-39
0.55036902 0.011526693 0.65553343 8.7243721e-39
0.55307806 0.013928222 0.65587413 8.7243721e-39
0.55672443 0.017144192 0.65630567 8.7243721e-39
0.55947298 0.019566931 0.65662885 8.7243721e-39
0.56199157 0.021729648 0.6550588 8.7243721e-39
0.56603086 0.025267093 0.65460253 8.7243721e-39
0.56876051 0.027727436 0.65500689 8.7243721e-39
0.57057226 0.029373093 0.65529585 8.7243721e-39
0.57238871 0.031022888 0.65558547 8.7243721e-39
0.57422304 0.032677084 0.65585864 8.7243721e-39
0.57701254 0.035167567 0.65623289 8.7243721e-39
0.53958809 0.036897458 0.65612954 8.7243721e-39
0.57981187 0.037666827 0.65660846 8.7243721e-39
0.58171666 0.039357111 0.65549386 8.7243721e-39
0.5836947 0.041057557 0.65429473 8.7243721e-39
0.58662516 0.043590594 0.65454584 8.7243721e-39
0.58956683 0.046133399 0.65479797 8.7243721e-39
0.45851433 0.19418767 0.65407026 7.470381e-39
0.46051759 0.19437292 0.65492737 7.1930696e-39
0.46319497 0.1946205 0.65607303 6.8228409e-39
0.46520782 0.19480665 0.65693426 6.730281e-39
0.45464805 0.19680166 0.65583086 6.2740112e-39
0.45672783 0.19517741 0.65562034 6.5505967e-39
0.45190254 0.19965404 0.65531981 6.1821757e-39
0.44967103 0.20305614 0.65489244 6.1821757e-39
0.45060492 0.2015478 0.65609616 6.2743713e-39
0.44796929 0.20557451 0.6558947 6.2740112e-39
0.44585717 0.20892608 0.65575343 6.1821757e-39
0.44360238 0.21227367 0.65540463 6.1821757e-39
0.44452828 0.21099128 0.65522587 6.1821757e-39
0.44204894 0.21439819 0.65572852 6.1821757e-39
0.4395743 0.21781434 0.65531993 6.1821757e-39
0.43728682 0.2209021 0.65553254 6.1821757e-39
0.43498731 0.22400291 0.6548568 6.1821757e-39
0.43604624 0.22257526 0.65581256 6.1821757e-39
0.43297544 0.22678542 0.65555352 6.2743699e-39
0.43178168 0.22995862 0.65484047 6.1821757e-39
0.43088245 0.23282142 0.6554758 6.4584011e-39
0.43027842 0.23551235 0.6546706 6.2740112e-39
0.42942381 0.23797172 0.65616328 6.2740112e-39
0.42849207 0.24162455 0.65500396 6.6427909e-39
0.42800152 0.2442611 0.65586406 6.7349865e-39
0.42935961 0.2459096 0.65627539 6.1803638e-39
0.43088675 0.24765143 0.65639752 5.9016021e-39
0.52080154 -0.32907581 0.65924996 2.2138484e-39
0.52085817 -0.32598016 0.65916932 2.5830051e-39
0.52090627 -0.322878 0.65910077 2.7677606e-39
0.52091813 -0.31975079 0.65908384 2.8599577e-39
0.52092636 -0.31662095 0.65907216 2.8599577e-39
0.52093458 -0.31349099 0.65906042 2.8599577e-39
0.52094281 -0.310361 0.65904874 2.8599577e-39
0.52095103 -0.30723089 0.65903693 2.8599577e-39
0.52110374 -0.30419353 0.65881938 2.8599577e-39
0.52167606 -0.30220759 0.65800387 2.8599577e-39
0.52216202 -0.30060667 0.65864682 2.8599577e-39
0.5228616 -0.29835501 0.65898883 2.8599577e-39
0.52382731 -0.29533288 0.65850753 2.8599577e-39
0.52469075 -0.29254174 0.65906471 2.8599577e-39
0.52524865 -0.2897374 0.65827554 2.8599577e-39
0.52566165 -0.28635997 0.65858078 2.8599577e-39
0.52596974 -0.28355023 0.65859008 2.8599577e-39
0.52623945 -0.28055984 0.65820938 2.9521519e-39
0.52670944 -0.27736875 0.65888131 8.7593359e-39
0.5269841 -0.27437645 0.65849423 1.1708845e-38
0.52725905 -0.27138099 0.6581068 1.1616649e-38
0.52773058 -0.26818919 0.65877593 8.8478896e-39
0.52780986 -0.26538038 0.65733063 7.9248515e-39
0.5282023 -0.26499793 0.65944618 7.0018148e-39
0.52832419 -0.26237336 0.65838575 7.9266564e-39
0.52875388 -0.25899199 0.65867162 8.7578632e-39
0.52908808 -0.25601548 0.65820247 8.6656675e-39
0.52944231 -0.25304556 0.65770513 8.7578632e-39
0.5298655 -0.25061288 0.65844417 8.2958018e-39
0.53024864 -0.24816126 0.65924096 8.4801945e-39
0.53054535 -0.24515526 0.65882587 8.3883576e-39
0.53084242 -0.24214579 0.65841031 8.4805546e-39
0.53114009 -0.23913296 0.65799391 8.5727516e-39
0.53159642 -0.2359264 0.65868801 8.2036062e-39
0.53189689 -0.23290986 0.65826839 8.3879974e-39
0.53235394 -0.22970289 0.6589638 8.4801945e-39
0.532655 -0.22668147 0.65854412 8.6656661e-39
0.53294551 -0.22365135 0.65813929 8.5731104e-39
0.53323907 -0.22018683 0.65861773 8.2958018e-39
0.53340524 -0.21727505 0.65883005 7.7411847e-39
0.53352547 -0.21416062 0.65866274 6.8177809e-39
0.53366369 -0.21105279 0.65847039 7.9248501e-39
0.53376228 -0.2082697 0.65788913 1.0324466e-38
0.53402555 -0.20701045 0.65929914 1.0140073e-38
0.5341121 -0.2054635 0.65917909 1.1247505e-38
0.53424197 -0.20314208 0.65899873 1.1708485e-38
0.53445989 -0.20006417 0.65869612 1.1708845e-38
0.53481901 -0.19704312 0.65819752 1.1524457e-38
0.53534311 -0.19367217 0.6583572 6.1782451e-39
0.53587419 -0.19109546 0.6585086 3.136183e-39
0.53664273 -0.18781778 0.65833271 2.8599577e-39
0.53746861 -0.1847513 0.65852106 2.8599577e-39
0.53829575 -0.18168135 0.65871072 2.8599577e-39
0.53911203 -0.17840777 0.65847224 2.8599577e-39
0.53981161 -0.17627509 0.65928274 2.8599577e-39
0.54009306 -0.17478797 0.65889633 2.8599577e-39
0.5408752 -0.17268699 0.65782219 2.8599577e-39
0.54185891 -0.16945757 0.65913224 2.8599577e-39
0.54266566 -0.16735427 0.65802836 2.8599577e-39
0.54320502 -0.16594827 0.65729034 2.8599577e-39
0.5439204 -0.1634171 0.65897179 2.8599577e-39
0.54554832 -0.16139434 0.65808219 2.8599577e-39
0.54755181 -0.16010441 0.65801811 2.8599577e-39
0.55084169 -0.15806732 0.65888405 2.8599577e-39
0.55384457 -0.15610576 0.6588285 2.8599577e-39
0.52361983 -0.076294631 0.65791243 8.7243721e-39
0.52092057 -0.073434629 0.65818959 8.7243721e-39
0.51808721 -0.07026726 0.6591236 8.7243721e-39
0.51509213 -0.066985995 0.65808105 8.7243721e-39
0.5128563 -0.064440623 0.65863454 8.7243721e-39
0.50995177 -0.061105251 0.65883821 8.7243721e-39
0.51140487 -0.062725909 0.65940255 8.7243721e-39
0.5077768 -0.058679406 0.65799361 8.7243721e-39
0.5051505 -0.05561484 0.65871739 8.7243721e-39
0.50206041 -0.052086394 0.65835655 8.7243721e-39
0.49995142 -0.049692459 0.65745318 8.7243721e-39
0.49713272 -0.04635828 0.65896869 8.7243721e-39
0.49853098 -0.047945216 0.65956944 8.7243721e-39
0.49720174 -0.043295346 0.65886545 1.0229393e-38
0.49873447 -0.04028514 0.65926611 8.7243721e-39
0.50042617 -0.038123153 0.65809202 8.6325366e-39
0.50224078 -0.035365533 0.65853637 8.0815237e-39
0.50462234 -0.03212909 0.65860057 4.4081038e-39
0.50628364 -0.029874161 0.65884101 7.1631687e-39
0.50737756 -0.028383661 0.65857667 7.8978527e-39
0.50904691 -0.026117807 0.65881813 7.1631687e-39
0.51168126 -0.023156164 0.65766227 5.5101298e-39
0.51445323 -0.020922516 0.65766382 7.7141817e-39
0.5163089 -0.019427128 0.65766501 6.9794977e-39
0.51810575 -0.017921861 0.65775919 5.8774718e-39
0.51988971 -0.016410835 0.65787935 6.2448137e-39
0.52163947 -0.014892645 0.65805596 7.9896882e-39
0.52320111 -0.013356943 0.65850687 8.7243721e-39
0.52476573 -0.01181826 0.65895867 8.7243721e-39
0.52633339 -0.010276593 0.65941125 8.7243721e-39
0.52790409 -0.008731937 0.65986478 8.7243721e-39
0.5297417 -0.0072603971 0.6572848 8.7243721e-39
0.53208393 -0.0049253078 0.65800887 8.7243721e-39
0.53534335 -0.0018077986 0.65880203 8.7243721e-39
0.53624141 0.0010111053 0.65885007 8.6325366e-39
0.53880328 0.0013154699 0.65934157 8.7243721e-39
0.54143846 0.0036665741 0.65970749 8.7243721e-39
0.5432173 0.0052215196 0.65860188 8.7243721e-39
0.54497695 0.0067846049 0.65753162 8.7243721e-39
0.54672807 0.0083693191 0.65780795 8.7243721e-39
0.54848641 0.0099579114 0.65808105 8.7243721e-39
0.55028957 0.011549684 0.65830022 8.7243721e-39
0.55301112 0.013945702 0.65862072 8.7243721e-39
0.55665612 0.017154675 0.65904987 8.7243721e-39
0.55940205 0.019572178 0.6593731 8.7243721e-39
0.56249213 0.022271417 0.65881914 8.7243721e-39
0.56593162 0.025259927 0.65738797 8.7243721e-39
0.5686928 0.027715225 0.65774763 8.7243721e-39
0.57050067 0.029357351 0.65803933 8.7243721e-39
0.57234031 0.031004038 0.65829664 8.7243721e-39
0.5741896 0.032655112 0.65854824 8.7243721e-39
0.57697332 0.035140418 0.65892702 8.7243721e-39
0.58184624 0.033633556 0.65778553 1.0410902e-38
0.57976681 0.037634458 0.65930712 8.7243721e-39
0.58163565 0.039303005 0.65956146 8.7243721e-39
0.58353603 0.040995661 0.65846395 8.7243721e-39
0.58639836 0.043539338 0.65747911 8.7243721e-39
0.58930951 0.046075057 0.6577661 8.7243721e-39
0.45748401 0.19487889 0.65849799 7.9324409e-39
0.46655232 0.19493096 0.65750962 6.8224766e-39
0.45497608 0.19689073 0.65895027 6.5505967e-39
0.46789873 0.19505548 0.6580857 6.9146722e-39
0.46974412 0.19517483 0.65923339 6.8224766e-39
0.45201501 0.19946806 0.65834171 8.4848944e-39
0.45339775 0.19850005 0.65971625 8.945511e-39
0.44937187 0.20324925 0.65814525 7.656217e-39
0.45071101 0.20117719 0.65866935 9.3139306e-39
0.44765788 0.20589486 0.65825069 6.4584011e-39
0.4459962 0.20855197 0.65827757 6.4584011e-39
0.44391376 0.21174663 0.65902019 6.1821757e-39
0.44471961 0.21063517 0.65766555 6.2740112e-39
0.44197121 0.21440071 0.65862346 6.1821757e-39
0.43977714 0.21741796 0.65866256 6.1821757e-39
0.43732107 0.22078052 0.65916562 6.6427909e-39
0.43814409 0.2197088 0.65776086 6.1821757e-39
0.434398 0.2246961 0.65864754 8.5770901e-39
0.4356505 0.22304153 0.6583398 7.563664e-39
0.43292239 0.22663732 0.65842211 8.3005046e-39
0.43168661 0.22941759 0.65778738 7.5640227e-39
0.43073529 0.23183841 0.65943623 8.7611198e-39
0.42980537 0.23548456 0.658279 6.9190177e-39
0.4286111 0.23971857 0.6575827 7.0112119e-39
0.42795527 0.24153976 0.65872824 7.3796329e-39
0.42831111 0.24389741 0.65810668 6.4587612e-39
0.42960232 0.24550787 0.65863228 6.2732839e-39
0.43112701 0.24724607 0.65875727 5.9945222e-39
0.43265563 0.24898876 0.65888262 5.8090449e-39
0.43498605 0.25117132 0.65763605 6.3618572e-39
0.52014148 -0.30679226 0.6628505 2.8599577e-39
0.52073497 -0.30483252 0.66200799 2.8599577e-39
0.52172011 -0.30184734 0.66149563 2.8599577e-39
0.52277112 -0.29840714 0.66177988 2.8599577e-39
0.52373528 -0.29554319 0.66174459 2.8599577e-39
0.52440262 -0.2932727 0.66213214 2.8599577e-39
0.52501953 -0.29129916 0.66126281 2.8599577e-39
0.52571583 -0.28904164 0.66160977 2.8599577e-39
0.52611184 -0.28629315 0.66149575 2.8599577e-39
0.52655435 -0.28293854 0.66175991 2.8599577e-39
0.52682829 -0.27995643 0.66137528 3.4131259e-39
0.52710247 -0.27697116 0.6609903 1.0049701e-38
0.52746469 -0.27408904 0.66136652 1.1708845e-38
0.52776444 -0.27153534 0.66138875 1.1247147e-38
0.52818084 -0.26910678 0.66213346 7.3702344e-39
0.52845597 -0.26611403 0.66174877 8.111049e-39
0.52873135 -0.26311809 0.66136348 8.7578632e-39
0.52900696 -0.2601189 0.66097784 8.5731118e-39
0.52947223 -0.25692797 0.661654 7.2802051e-39
0.52977127 -0.25393653 0.66123646 7.3720392e-39
0.53025758 -0.2507557 0.66188538 5.9865769e-39
0.53055477 -0.24775794 0.66147125 5.8021856e-39
0.53085375 -0.24475749 0.66105461 6.2635253e-39
0.53130925 -0.24155873 0.66174573 6.3546405e-39
0.53160882 -0.23855342 0.66132903 6.355002e-39
0.53206468 -0.23535401 0.66202205 5.6167125e-39
0.53236485 -0.23234384 0.6616053 6.0784123e-39
0.53266525 -0.22933017 0.66118807 6.7241461e-39
0.53309458 -0.22593932 0.6614756 7.0950908e-39
0.53342217 -0.22311074 0.66146296 7.3723994e-39
0.53374916 -0.22028065 0.66145188 7.8344607e-39
0.53404808 -0.21682519 0.66192222 8.388359e-39
0.53412545 -0.21448806 0.66181517 8.942616e-39
0.53420287 -0.21215016 0.661708 8.5734705e-39
0.53430623 -0.20903192 0.66156507 7.2798436e-39
0.51764882 -0.20611374 0.6608001 6.0766103e-39
0.53440952 -0.20591244 0.66142213 7.6479031e-39
0.53454918 -0.20280738 0.66122901 1.1062754e-38
0.53474689 -0.19972537 0.66095543 1.1708845e-38
0.53529692 -0.19656226 0.66151989 1.1616649e-38
0.53583896 -0.19380879 0.66121364 9.6809223e-39
0.53661966 -0.19054598 0.66102087 3.4127671e-39
0.5372923 -0.18958759 0.66274256 3.5049614e-39
0.53744388 -0.18748747 0.66121036 2.8599577e-39
0.53826916 -0.18442552 0.66140103 2.8599577e-39
0.53907871 -0.18135397 0.66161329 2.8599577e-39
0.53951573 -0.17913872 0.66101432 2.8599577e-39
0.54006267 -0.17755048 0.66158986 2.8599577e-39
0.540654 -0.17498679 0.66166252 2.8599577e-39
0.5413031 -0.172243 0.66121691 2.8599577e-39
0.54214358 -0.16916662 0.66139406 2.8599577e-39
0.54257321 -0.16693109 0.66080844 2.8599577e-39
0.54317629 -0.1653581 0.66130924 2.8599577e-39
0.54400814 -0.16306648 0.661502 2.8599577e-39
0.54729843 -0.16044414 0.66101313 2.8599577e-39
0.55098027 -0.15774643 0.66134381 2.8599577e-39
0.55494189 -0.15610529 0.66000974 3.1365544e-39
0.52866137 -0.081164099 0.66146135 8.7243721e-39
0.52700257 -0.079473086 0.66113061 8.7243721e-39
0.52369624 -0.076102629 0.66047138 8.7243721e-39
0.52534747 -0.077785932 0.66080058 8.7243721e-39
0.52048731 -0.072563194 0.6623596 8.7243721e-39
0.52208841 -0.074329272 0.66141623 8.7243721e-39
0.51807332 -0.070069671 0.6618095 8.7243721e-39
0.51580215 -0.067607693 0.66106611 8.7243721e-39
0.51287585 -0.064168297 0.66261178 8.7243721e-39
0.51431787 -0.065974958 0.66053385 8.7243721e-39
0.50997341 -0.060931467 0.66148043 8.7243721e-39
0.51142347 -0.062548608 0.6620456 8.7243721e-39
0.50757128 -0.058186889 0.66141695 8.7243721e-39
0.50494868 -0.055131145 0.66213721 8.7243721e-39
0.50207734 -0.051929303 0.66101396 8.7243721e-39
0.49991491 -0.049454879 0.66153347 8.7243721e-39
0.49712211 -0.046208642 0.66166854 8.7243721e-39
0.49854589 -0.047796115 0.66222757 8.7243721e-39
0.49606919 -0.044602472 0.66189867 1.0306463e-38
0.49762177 -0.041676238 0.66092402 9.0999972e-39
0.49977243 -0.038745932 0.66040683 8.6325366e-39
0.50524288 -0.031309467 0.66036874 6.0611427e-39
0.50876856 -0.025988549 0.66189635 6.0611427e-39
0.51139033 -0.023275977 0.66120476 5.8774718e-39
0.51435423 -0.020822786 0.66048157 7.5305107e-39
0.51612341 -0.019323956 0.66060495 5.6019653e-39
0.49999535 -0.017811548 0.66042745 7.6227063e-39
0.51789755 -0.017820884 0.66072863 4.8672813e-39
0.51967674 -0.016313538 0.66085279 8.2651947e-39
0.5213564 -0.01479432 0.66112572 8.7243721e-39
0.52291358 -0.013262618 0.66157836 8.7243721e-39
0.52447373 -0.011727951 0.66203195 8.7243721e-39
0.52603698 -0.010190319 0.66248631 8.7243721e-39
0.53393108 -0.010737877 0.66160721 1.5396306e-38
0.52762252 -0.0086508673 0.66291457 8.7243721e-39
0.52947778 -0.0071842726 0.66031927 8.7243721e-39
0.53190136 -0.0048596151 0.66092384 8.7243721e-39
0.53536224 -0.0017592432 0.66143131 8.7243721e-39
0.5388608 0.0013559526 0.66191375 8.7243721e-39
0.54149592 0.0037023444 0.66227698 8.7243721e-39
0.54321182 0.0052734502 0.66258365 8.7243721e-39
0.5449506 0.0068322099 0.66154379 8.7243721e-39
0.54670316 0.008397921 0.66049415 8.7243721e-39
0.54846358 0.0099830776 0.66076213 8.7243721e-39
0.5503127 0.011570586 0.6609177 8.7243721e-39
0.55304062 0.013961669 0.66122705 8.7243721e-39
0.55668199 0.017164271 0.66165751 8.7243721e-39
0.55942255 0.019576997 0.6619854 8.7243721e-39
0.56217533 0.022000531 0.66231477 8.7243721e-39
0.56824553 0.02195237 0.66078484 9.1835496e-39
0.56585842 0.025249667 0.66144437 8.7243721e-39
0.5686276 0.027703088 0.66047364 8.7243721e-39
0.57039785 0.029341262 0.6608119 8.7243721e-39
0.57222134 0.030984128 0.66108763 8.7243721e-39
0.57404947 0.0326312 0.66136414 8.7243721e-39
0.57588226 0.034282491 0.66164136 8.7243721e-39
0.57771981 0.035938025 0.66191924 8.7243721e-39
0.57956207 0.037597809 0.66219789 8.7243721e-39
0.5814091 0.039261866 0.66247725 8.7243721e-39
0.58326077 0.040930212 0.66275728 8.7243721e-39
0.58631682 0.043493755 0.66021705 8.7243721e-39
0.58934295 0.046005514 0.66166896 8.7243721e-39
0.45824978 0.19458641 0.66134429 8.9455054e-39
0.45556742 0.19708513 0.66162306 6.4584011e-39
0.45667696 0.19584626 0.6611765 6.4587598e-39
0.45177424 0.20043497 0.6614747 8.6692843e-39
0.45415848 0.19840123 0.66119975 7.656217e-39
0.44948423 0.20287785 0.66070032 9.7745472e-39
0.4502582 0.20204878 0.66215307 8.4848944e-39
0.44796762 0.20521539 0.66139042 8.5770901e-39
0.44593883 0.20835257 0.66180241 8.2083089e-39
0.44313529 0.21264306 0.66169882 5.4442575e-39
0.44441354 0.21079397 0.66092777 6.181817e-39
0.44169626 0.21463402 0.66137779 5.6286474e-39
0.43943688 0.21777456 0.66199142 5.3524234e-39
0.43692532 0.22125174 0.66167575 6.0896241e-39
0.43835253 0.21934237 0.66016513 6.0903402e-39
0.43459702 0.22431451 0.66106671 9.4061263e-39
0.43564886 0.22289446 0.66201979 8.852598e-39
0.43333372 0.22595336 0.66139668 9.1298995e-39
0.43111363 0.22936372 0.66154504 9.3139306e-39
0.42989951 0.23358336 0.66088474 8.3008647e-39
0.42869949 0.23585153 0.6629647 9.3139306e-39
0.42929864 0.23471908 0.66192627 9.0377053e-39
0.42835608 0.23834515 0.66080064 8.2083103e-39
0.4280031 0.24104343 0.66141474 6.2743713e-39
0.42861968 0.24353491 0.66034204 6.1821757e-39
0.42936713 0.24413025 0.6618076 6.1818156e-39
0.43078321 0.24652724 0.66211551 5.8108568e-39
0.43219233 0.2482015 0.66244119 5.8101324e-39
0.4336043 0.24987921 0.66276753 5.9016035e-39
0.43558562 0.25186992 0.66212779 6.0852689e-39
0.5226168 -0.3304618 0.66464889 3.1365516e-39
0.51936072 -0.32811767 0.66395897 1.3840653e-39
0.51942527 -0.3258228 0.66386747 2.1216514e-39
0.51951122 -0.32276207 0.6637454 2.8599577e-39
0.51970708 -0.31941515 0.66479093 2.8599577e-39
0.51979297 -0.31635481 0.6646691 2.8599577e-39
0.51987904 -0.31329349 0.66454715 2.8599577e-39
0.51996505 -0.31023109 0.66442525 2.8599577e-39
0.52022225 -0.30742356 0.66450268 2.8599577e-39
0.52128863 -0.3040137 0.66475874 2.8599577e-39
0.52163243 -0.30237925 0.66339058 2.8599577e-39
0.52222246 -0.30129424 0.66520452 2.8599577e-39
0.52294493 -0.29862669 0.6641863 2.8599577e-39
0.52388102 -0.29590043 0.66463208 2.8599577e-39
0.5247941 -0.29285416 0.66423142 2.8599577e-39
0.52562541 -0.29005584 0.66482741 2.8599577e-39
0.52637076 -0.28689602 0.66466558 2.9517932e-39
0.52662528 -0.28391218 0.66430956 3.3205715e-39
0.52693063 -0.28095531 0.66388237 4.1503224e-39
0.52734685 -0.27774662 0.66462147 1.0049702e-38
0.52766937 -0.27495334 0.66461164 1.1616651e-38
0.52799952 -0.27232134 0.66503251 1.1708845e-38
0.52815729 -0.27084166 0.66481256 1.0878001e-38
0.52839422 -0.2686204 0.66448236 6.6323064e-39
0.52871048 -0.26565561 0.66404164 8.0181317e-39
0.52911991 -0.2622793 0.66435128 7.2794821e-39
0.52944613 -0.25947773 0.6643374 6.262805e-39
0.52989024 -0.25628281 0.66504145 5.800022e-39
0.5302341 -0.25332209 0.66456389 5.5234351e-39
0.53059971 -0.25036868 0.6640563 5.7993017e-39
0.53089392 -0.2473736 0.66364771 5.9836944e-39
0.53128636 -0.24701852 0.66574287 5.9836944e-39
0.53137505 -0.24419446 0.66430044 5.7996633e-39
0.53183925 -0.2410071 0.66497803 5.9836944e-39
0.53209507 -0.23798591 0.66462415 5.9836944e-39
0.53237557 -0.23497391 0.66423595 5.9836944e-39
0.5326755 -0.23196797 0.66382116 5.7996619e-39
0.53307205 -0.22953288 0.66459185 5.7074676e-39
0.53335744 -0.22695594 0.6646378 5.7074662e-39
0.53373575 -0.22407368 0.66499597 5.9836944e-39
0.53396124 -0.22181365 0.66468507 5.9840545e-39
0.5341118 -0.22030582 0.66447765 5.9851349e-39
0.5343377 -0.21804231 0.66416621 5.8018255e-39
0.53467727 -0.21461235 0.66457719 6.633391e-39
0.53484285 -0.21171078 0.66478866 8.2965221e-39
0.53494608 -0.2085983 0.66464663 8.6656675e-39
0.53505647 -0.20548771 0.66449475 7.1872878e-39
0.53516978 -0.20237701 0.66433895 9.7709291e-39
0.53528905 -0.19926746 0.66417491 1.1708845e-38
0.53567368 -0.19604185 0.66496539 1.1708845e-38
0.5363276 -0.19315149 0.66406739 1.0510675e-38
0.53692454 -0.19102241 0.66324759 7.0079973e-39
0.53715813 -0.18909658 0.665564 5.6250783e-39
0.53775579 -0.18696335 0.66474617 2.9517932e-39
0.53855479 -0.18411177 0.66365296 2.8599577e-39
0.53918588 -0.18076691 0.66542596 2.8599577e-39
0.53978688 -0.17862077 0.66460675 2.8599577e-39
0.54018831 -0.1771871 0.6640594 2.8599577e-39
0.54059047 -0.17575124 0.66351122 2.8599577e-39
0.54101992 -0.17312606 0.66556072 2.8599577e-39
0.54202753 -0.16952574 0.6641922 2.8599577e-39
0.54289091 -0.16725717 0.66433638 2.8599577e-39
0.54362297 -0.16573448 0.66466224 2.8599577e-39
0.54485154 -0.1632314 0.66457975 2.8599577e-39
0.54706579 -0.16019541 0.6644029 2.8599577e-39
0.55088031 -0.15734686 0.66411299 2.8599577e-39
0.55353135 -0.156702 0.6658361 3.1365544e-39
0.55683202 -0.157252 0.66540194 3.1365544e-39
0.5590446 -0.15762071 0.66511077 3.1365544e-39
0.56238168 -0.15817678 0.66467172 3.1365544e-39
0.51183468 -0.093181215 0.665869 9.2829479e-39
0.53205079 -0.08434882 0.66468537 8.8169279e-39
0.53038752 -0.082653627 0.66435081 8.8162076e-39
0.52707243 -0.079274818 0.66368407 8.7243721e-39
0.52872807 -0.080962293 0.66401708 8.7243721e-39
0.52368307 -0.075791687 0.66446853 8.7243721e-39
0.52542049 -0.077591181 0.66335183 8.7243721e-39
0.5204215 -0.072352022 0.66510332 8.7243721e-39
0.52200598 -0.07401029 0.66550964 8.7243721e-39
0.51805133 -0.069871411 0.66449559 8.7243721e-39
0.51578748 -0.067415416 0.66374665 8.7243721e-39
0.51433051 -0.065790556 0.6631788 8.7243721e-39
0.50973737 -0.060715355 0.66448414 8.7243721e-39
0.51100969 -0.062298559 0.66530061 8.7243721e-39
0.50846612 -0.059133537 0.66366845 8.7243721e-39
0.50367868 -0.054079987 0.66532731 8.7243721e-39
0.50241756 -0.052510388 0.66451609 8.7243721e-39
0.50115752 -0.050942168 0.66370547 8.7243721e-39
0.49732596 -0.046089925 0.66403836 1.0101905e-38
0.49836186 -0.046854042 0.6651684 1.0101905e-38
0.49684581 -0.043521762 0.66386217 1.0101905e-38
0.49818146 -0.043769311 0.66543519 1.0101905e-38
0.49732614 -0.040434625 0.66492659 1.0101905e-38
0.49804622 -0.041457199 0.66563511 1.0101905e-38
0.49786609 -0.038376492 0.6659016 1.0101905e-38
0.50357854 -0.029477924 0.66547382 7.0713332e-39
0.50540495 -0.028020728 0.66546315 7.3468397e-39
0.52469701 -0.028556449 0.66556597 9.8390028e-39
0.50815618 -0.025825629 0.66544712 6.0611427e-39
0.51200205 -0.022655159 0.66475534 7.8060172e-39
0.51477706 -0.020189265 0.66430819 5.5101298e-39
0.51769042 -0.017720405 0.66368324 7.1631687e-39
0.51946485 -0.016216733 0.66381121 8.5407011e-39
0.52107495 -0.014696516 0.66417909 8.7243721e-39
0.52262771 -0.013168793 0.66463351 8.7243721e-39
0.52426875 -0.011643767 0.66496891 8.7243721e-39
0.52598625 -0.010119852 0.66520351 8.7243721e-39
0.52770799 -0.0085920393 0.66543877 8.7243721e-39
0.52939308 -0.0070883017 0.66441107 8.7243721e-39
0.53169131 -0.0050458885 0.66430295 8.7243721e-39
0.53543115 -0.0017131856 0.66398108 8.7243721e-39
0.5388999 0.0013969466 0.66450053 8.7243721e-39
0.54145432 0.0037414003 0.6649707 8.7243721e-39
0.54316068 0.0053093787 0.66528779 8.7243721e-39
0.54487121 0.0068810731 0.6656056 8.7243721e-39
0.54663062 0.0084414836 0.66454852 8.7243721e-39
0.5484584 0.010007747 0.66340852 8.7243721e-39
0.55030364 0.011592027 0.6635676 8.7243721e-39
0.55306268 0.013977681 0.66383272 8.7243721e-39
0.55670029 0.017173897 0.66426468 8.7243721e-39
0.55943918 0.019581813 0.66459227 8.7243721e-39
0.5621897 0.022000529 0.66492206 8.7243721e-39
0.56583607 0.025239713 0.66541243 8.7243721e-39
0.56849217 0.027684592 0.66458905 8.7243721e-39
0.5702675 0.029324874 0.66360837 8.7243721e-39
0.5720017 0.030962678 0.66399646 8.7243721e-39
0.57381314 0.032605555 0.6642915 8.7243721e-39
0.57564116 0.034252826 0.66457176 8.7243721e-39
0.57747394 0.035904314 0.6648528 8.7243721e-39
0.57931143 0.037560038 0.66513443 8.7243721e-39
0.58115363 0.039220013 0.6654169 8.7243721e-39
0.58300054 0.040884256 0.66570002 8.7243721e-39
0.58633584 0.043431319 0.66412556 8.7243721e-39
0.59029329 0.04597456 0.66441023 8.7243721e-39
0.59133333 0.045970943 0.66572785 9.7345626e-39
0.45958969 0.19432291 0.66460621 9.1295338e-39
0.45554143 0.19667549 0.66438234 6.1821757e-39
0.4576208 0.19542569 0.66507548 6.9186561e-39
0.45223099 0.19983038 0.66435456 6.4587598e-39
0.45421773 0.19802172 0.66382384 6.2740112e-39
0.44958511 0.20302966 0.66462237 7.0112119e-39
0.45047849 0.20172621 0.66451263 6.2743699e-39
0.44693863 0.2069356 0.66491467 9.2220951e-39
0.44810876 0.20520006 0.66479212 8.2086691e-39
0.44558725 0.20897381 0.66443467 7.4714684e-39
0.44349885 0.21214138 0.66518873 2.770971e-39
0.44423753 0.21100962 0.66395652 5.4438988e-39
0.44186413 0.21442954 0.66428739 2.7709696e-39
0.43977135 0.21739624 0.66461968 2.4007536e-39
0.43744737 0.22063389 0.66444552 2.2228363e-39
