# .PCD v0.7 - Point Cloud Data file format
VERSION 0.7
FIELDS x y z rgb
SIZE 4 4 4 4
TYPE F F F F
COUNT 1 1 1 1
WIDTH 1006
HEIGHT 1
VIEWPOINT 0 0 0 1 0 0 0
POINTS 1006
DATA ascii
0.53007132 -0.29553205 0.73931855 2.8599577e-39
0.53076077 -0.29268414 0.73962945 2.8599577e-39
0.53111523 -0.29111266 0.74035847 2.8599577e-39
0.53147113 -0.28910619 0.7399174 2.8599577e-39
0.53201401 -0.28646722 0.73924458 2.8599577e-39
0.5326705 -0.28359056 0.73959941 2.8599577e-39
0.53318828 -0.28107539 0.73934871 2.8599577e-39
0.53384471 -0.27804318 0.73931742 2.8599577e-39
0.53422797 -0.27603531 0.73884416 2.8599577e-39
0.53453004 -0.27443156 0.73963875 2.8599577e-39
0.53482705 -0.27202806 0.73966223 2.8599577e-39
0.5352301 -0.2685965 0.73994541 2.8599577e-39
0.53564584 -0.26510987 0.73943394 2.8599577e-39
0.53597885 -0.26231641 0.73902416 2.8599577e-39
0.5363608 -0.25927186 0.73972166 2.8599577e-39
0.53678483 -0.25667992 0.73959041 2.8599577e-39
0.53729808 -0.25354561 0.73974001 2.8599577e-39
0.53776181 -0.25080875 0.7391715 2.8599577e-39
0.53835404 -0.24747536 0.73937941 2.8599577e-39
0.53883719 -0.24487588 0.74018991 2.8599577e-39
0.5394451 -0.24145365 0.73944753 2.8599577e-39
0.53993231 -0.23871078 0.73885244 2.8599577e-39
0.54017621 -0.23733719 0.73855448 2.8603164e-39
0.54050642 -0.23562953 0.73990256 2.8599577e-39
0.54114562 -0.23208153 0.73970836 2.8599577e-39
0.54156005 -0.22929014 0.73920405 2.8599577e-39
0.5419659 -0.22608082 0.73948795 2.8599577e-39
0.54228795 -0.22340882 0.73948532 2.8603164e-39
0.54261023 -0.22073567 0.73948318 2.8610353e-39
0.54293716 -0.21823467 0.73986495 2.8599577e-39
0.54309624 -0.21680982 0.73967212 2.8599577e-39
0.54337436 -0.21468841 0.73933482 2.8599577e-39
0.54387277 -0.21151285 0.73950815 2.8603164e-39
0.54421377 -0.20883992 0.73948413 2.861394e-39
0.54447436 -0.20595418 0.73916876 2.8628317e-39
0.54491043 -0.20292282 0.73980874 2.8599577e-39
0.54515827 -0.20002761 0.73950946 2.8599577e-39
0.54540622 -0.1971297 0.73920983 2.8606751e-39
0.54581761 -0.19381551 0.73929584 2.8631905e-39
0.54609227 -0.19324099 0.74071366 2.8599577e-39
0.54622066 -0.19049639 0.7393927 2.8642695e-39
0.54648477 -0.18803079 0.73946315 2.8635506e-39
0.5468781 -0.18454623 0.73976773 2.8603164e-39
0.54753053 -0.18065916 0.73975992 2.8617541e-39
0.54831374 -0.17813319 0.73920727 3.0493838e-39
0.54983705 -0.17737536 0.74087727 2.8599577e-39
0.5500046 -0.17536901 0.73951221 3.2330632e-39
0.55089122 -0.17286702 0.7388401 3.1476947e-39
0.55227 -0.1726183 0.74030268 3.046151e-39
0.55188024 -0.17058469 0.73843563 3.1534442e-39
0.55355376 -0.16987514 0.73993999 3.0511845e-39
0.56697518 -0.16875583 0.73943812 8.85117e-39
0.55413419 -0.16736954 0.73886114 3.1530841e-39
0.55575603 -0.16574974 0.73965704 3.0572927e-39
0.55694222 -0.16332929 0.7394188 3.0608857e-39
0.55826283 -0.16228996 0.74018979 3.15021e-39
0.55766326 -0.16091958 0.73856664 3.1588336e-39
0.55895817 -0.15986788 0.7393707 3.0637597e-39
0.5602724 -0.15766877 0.73937869 3.1555994e-39
0.5617969 -0.15670201 0.74069506 2.8714553e-39
0.24149665 0.56099474 0.739649 4.1326169e-39
0.24338739 0.56099862 0.73975223 4.1326169e-39
0.24489431 0.56100178 0.73940623 4.1326169e-39
0.24757884 0.56100726 0.73955166 4.1326169e-39
0.25058922 0.56101352 0.73957139 4.1326169e-39
0.25360698 0.56101972 0.73937684 4.1326169e-39
0.25658768 0.56102592 0.73970282 4.1326169e-39
0.25938472 0.5610317 0.73943764 4.1326169e-39
0.26244935 0.56103802 0.73948961 4.1326169e-39
0.26572189 0.56104481 0.73946851 4.1326169e-39
0.26864052 0.56105083 0.73937148 4.1326169e-39
0.27166766 0.56105709 0.73953062 4.1326169e-39
0.27471405 0.56106341 0.73969209 4.1326169e-39
0.27742538 0.56106901 0.73953694 4.1326169e-39
0.28044599 0.56107521 0.73949641 4.1326169e-39
0.28348815 0.56108153 0.73945618 4.1326169e-39
0.28655225 0.56108791 0.73941404 4.1326169e-39
0.28947365 0.56109393 0.73966682 4.1326169e-39
0.29228207 0.56109977 0.73950887 4.1326169e-39
0.29524031 0.56110585 0.73976362 4.1326169e-39
0.29825681 0.56111205 0.73930907 4.1326169e-39
0.300542 0.56111676 0.73983341 4.1326169e-39
0.22853281 0.57529312 0.73823059 4.1326169e-39
0.27473506 -0.55893499 0.7424736 1.1164145e-41
0.27765453 -0.55892897 0.74261904 1.1164145e-41
0.28055072 -0.55892295 0.7424171 1.1164145e-41
0.28342113 -0.55891699 0.74277323 1.1164145e-41
0.28635657 -0.55891091 0.7425704 1.1164145e-41
0.28957647 -0.55890429 0.74264866 1.1164145e-41
0.29281923 -0.5588975 0.74272758 1.1164145e-41
0.29556584 -0.55889189 0.74274951 1.1164145e-41
0.29829618 -0.55888617 0.74267101 1.1164145e-41
0.30006057 -0.55888253 0.74267602 1.1164145e-41
0.52789336 -0.32514554 0.74202752 1.2918683e-39
0.52814525 -0.32584545 0.74326438 2.3064098e-39
0.52821141 -0.32281071 0.74279499 1.8450589e-39
0.52842104 -0.31962755 0.74230206 2.8599577e-39
0.52867115 -0.31648219 0.7422241 2.8599577e-39
0.52894968 -0.31355059 0.74246043 2.8599577e-39
0.52927655 -0.30991188 0.74263716 2.8599577e-39
0.52946949 -0.30708495 0.74239814 2.8599577e-39
0.52979273 -0.30388033 0.74277228 2.8599577e-39
0.53002691 -0.30121648 0.74286985 2.8599577e-39
0.53023803 -0.29839596 0.74260873 2.8599577e-39
0.53059673 -0.29566389 0.74216509 2.8599577e-39
0.53126597 -0.29280978 0.74250162 2.8599577e-39
0.53195304 -0.28958145 0.74258327 2.8599577e-39
0.53256786 -0.28627846 0.74229056 2.8599577e-39
0.55584538 -0.28676191 0.74260294 4.7972066e-39
0.53325665 -0.28304261 0.74237335 2.8599577e-39
0.5337593 -0.28042474 0.74252957 2.8599577e-39
0.53408378 -0.27923501 0.74368024 2.8599577e-39
0.53424478 -0.27739841 0.7423206 2.8599577e-39
0.53466547 -0.27438572 0.74296725 2.8599577e-39
0.53494835 -0.27158165 0.74262035 2.8599577e-39
0.53523171 -0.26877451 0.74227309 2.8599577e-39
0.53560883 -0.26558271 0.74258518 2.8599577e-39
0.53595895 -0.26257136 0.74231112 2.8599577e-39
0.53627366 -0.25988987 0.74332106 2.8599577e-39
0.53666073 -0.25712964 0.74284828 2.8599577e-39
0.53702211 -0.25509459 0.74240685 2.8599577e-39
0.53738421 -0.25305638 0.74196464 2.8599577e-39
0.53787386 -0.25046685 0.74276066 2.8599577e-39
0.55720472 -0.24974212 0.7415269 4.7968464e-39
0.53846967 -0.24714626 0.74296486 2.8599577e-39
0.53895426 -0.24441864 0.74237525 2.8599577e-39
0.53951865 -0.24130787 0.74246246 2.8599577e-39
0.53986186 -0.23940912 0.74243236 2.8599577e-39
0.5401051 -0.23804006 0.7421369 2.8599577e-39
0.54052752 -0.23576246 0.74278665 2.8599577e-39
0.54101491 -0.23301885 0.74219573 2.8599577e-39
0.54161292 -0.22967991 0.74239951 2.8599577e-39
0.54204601 -0.22697186 0.74249482 2.8599577e-39
0.54248786 -0.22353749 0.74273556 2.8599577e-39
0.54289079 -0.21999075 0.74224883 2.8599577e-39
0.54339159 -0.21699959 0.74280453 2.8599577e-39
0.54376948 -0.2141809 0.74234873 2.8599577e-39
0.54416013 -0.21153812 0.74226505 2.8599577e-39
0.54465806 -0.20836639 0.74244004 2.8599577e-39
0.54514569 -0.20518899 0.74262667 2.8599577e-39
0.54547 -0.20251088 0.74262363 2.8599577e-39
0.54572171 -0.19962253 0.74232119 2.8599577e-39
0.54578209 -0.19686283 0.74108708 2.8599577e-39
0.546157 -0.19659659 0.74295974 2.8599577e-39
0.54640502 -0.19370279 0.74266243 2.8599577e-39
0.54665327 -0.19080627 0.74236465 2.8599577e-39
0.5470469 -0.18758048 0.74266595 2.8599577e-39
0.54739273 -0.18490069 0.74263847 2.8599577e-39
0.54774606 -0.1820374 0.74221563 2.8599577e-39
0.54843521 -0.17910384 0.7425524 2.8599577e-39
0.55013108 -0.17559838 0.74284935 2.8599577e-39
0.55305552 -0.17253047 0.74169457 2.8599577e-39
0.55454624 -0.17043389 0.74225098 2.8599577e-39
0.55504113 -0.16909972 0.74166608 2.8599577e-39
0.55653626 -0.16699602 0.74222314 2.8599577e-39
0.56576598 -0.16536501 0.7414704 2.952519e-39
0.55728292 -0.16498566 0.74134386 2.8613954e-39
0.55893403 -0.16323833 0.74265319 2.8603164e-39
0.56020349 -0.16034009 0.74178499 2.8631905e-39
0.56128871 -0.15998918 0.74360752 2.8599577e-39
0.56229651 -0.15728635 0.74243355 2.8628317e-39
0.23948249 0.56099051 0.74302667 4.1326169e-39
0.24146998 0.56099463 0.74248397 4.1326169e-39
0.24360929 0.56099904 0.74298692 4.1326169e-39
0.24482341 0.56100154 0.74248922 4.1326169e-39
0.24740399 0.56100684 0.74254435 4.1326169e-39
0.25046104 0.56101316 0.7425704 4.1326169e-39
0.25344273 0.56101936 0.74231797 4.1326169e-39
0.25641367 0.5610255 0.74242383 4.1326169e-39
0.2591936 0.56103128 0.74261409 4.1326169e-39
0.26250857 0.56119156 0.74262035 4.1326169e-39
0.26553646 0.56104439 0.74252301 4.1326169e-39
0.26842439 0.56105036 0.74213344 4.1326169e-39
0.27145091 0.56105661 0.74282455 4.1326169e-39
0.27438021 0.56106269 0.74243379 4.1326169e-39
0.27771154 0.56106955 0.74267614 4.1326169e-39
0.28070432 0.56107575 0.74258935 4.1326169e-39
0.28341284 0.56108129 0.74234271 4.1326169e-39
0.28659829 0.56108797 0.74245161 4.1326169e-39
0.28957635 0.56109405 0.74264938 4.1326169e-39
0.29287839 0.5611009 0.74250352 4.1326169e-39
0.29562551 0.56110656 0.74261421 4.1326169e-39
0.29843307 0.5611124 0.74236321 4.1326169e-39
0.30064622 0.56111693 0.74268705 4.1326169e-39
0.27737468 -0.55892944 0.74519622 1.1164145e-41
0.28037253 -0.55892324 0.74554491 1.1164145e-41
0.28353754 -0.55891663 0.74563313 1.1164145e-41
0.28667706 -0.55891019 0.7455824 1.1164145e-41
0.28964683 -0.55890405 0.74568427 1.1164145e-41
0.29233131 -0.55889845 0.74561596 1.1164145e-41
0.29556042 -0.55889177 0.74563503 1.1164145e-41
0.29853249 -0.55888563 0.7455678 1.1164145e-41
0.30039406 -0.55888176 0.74587572 1.1164145e-41
0.52990991 -0.32813475 0.74572009 2.8599577e-39
0.52845562 -0.32490468 0.74597198 2.0298159e-39
0.52865422 -0.32209781 0.74572676 1.752859e-39
0.5288856 -0.31931049 0.74544102 2.8599577e-39
0.52911723 -0.31652063 0.74515498 2.8599577e-39
0.54265463 -0.31629467 0.74523026 2.4908066e-39
0.52948546 -0.31349027 0.745857 2.8599577e-39
0.52969325 -0.31068164 0.74560106 2.8599577e-39
0.52988636 -0.30786127 0.745363 2.8599577e-39
0.53007919 -0.30503851 0.74512529 2.8599577e-39
0.53044289 -0.30200502 0.74583524 2.8599577e-39
0.53078085 -0.2985329 0.74541932 2.8599577e-39
0.5315277 -0.29537931 0.74588883 2.8599577e-39
0.5319767 -0.29232323 0.74510622 2.8599577e-39
0.53264558 -0.28947154 0.74544328 2.8599577e-39
0.53315347 -0.28637624 0.74559146 2.8599577e-39
0.53353691 -0.28379607 0.74550736 2.8599577e-39
0.53381979 -0.28174591 0.74516124 2.8599577e-39
0.53412247 -0.28015053 0.74594855 2.8599577e-39
0.53448468 -0.27740398 0.74550599 2.8599577e-39
0.53485447 -0.27391833 0.74505442 2.8599577e-39
0.53517622 -0.27119759 0.74543196 2.8599577e-39
0.53549033 -0.26846081 0.74566561 2.8599577e-39
0.53582019 -0.26544973 0.74541801 2.8599577e-39
0.5362463 -0.2622906 0.74567068 2.8599577e-39
0.53657889 -0.25950876 0.74526584 2.8599577e-39
0.5368523 -0.25743288 0.74493313 2.8599577e-39
0.53719646 -0.25626886 0.74605536 2.8599577e-39
0.53751487 -0.25380993 0.74528348 2.8599577e-39
0.5380767 -0.25087351 0.74575841 2.8599577e-39
0.53858376 -0.24742667 0.74514359 2.8599577e-39
0.53914613 -0.24448626 0.74561739 2.8599577e-39
0.53964007 -0.24163857 0.74559796 2.8599577e-39
0.54021788 -0.23808613 0.74547797 2.8599577e-39
0.54077506 -0.23497365 0.74557495 2.8599577e-39
0.5412364 -0.23238897 0.74540335 2.8599577e-39
0.54175359 -0.22941834 0.74593627 2.8599577e-39
0.5422157 -0.22666091 0.74538004 2.8599577e-39
0.54270482 -0.22400141 0.7455613 2.8599577e-39
0.54305083 -0.22285523 0.74668521 2.8599577e-39
0.54286319 -0.22174865 0.74460053 2.8599577e-39
0.54317874 -0.22058837 0.74576163 2.8599577e-39
0.58928162 -0.22138801 0.74671847 4.1510945e-39
0.54347807 -0.21824186 0.74540234 2.8599577e-39
0.54397422 -0.21508232 0.74557769 2.8599577e-39
0.54444647 -0.21156274 0.74501127 2.8599577e-39
0.54501921 -0.20826301 0.74571061 2.8599577e-39
0.54544055 -0.2052315 0.74536067 2.8599577e-39
0.54584336 -0.20276929 0.7456497 2.8599577e-39
0.54603302 -0.20135562 0.74542296 2.8599577e-39
0.54641289 -0.19888262 0.74573857 2.8599577e-39
0.54671764 -0.19619855 0.74575967 2.8599577e-39
0.54696536 -0.19330983 0.74546409 2.8599577e-39
0.54722631 -0.19042352 0.74515295 2.8599577e-39
0.54761273 -0.18776631 0.74507761 2.8599577e-39
0.54849952 -0.18453784 0.74594635 2.8599577e-39
0.54861158 -0.18178204 0.74465859 2.8599577e-39
0.5491873 -0.18161219 0.74628359 2.8599577e-39
0.54891187 -0.179648 0.74430108 2.8599577e-39
0.54942936 -0.17858684 0.74522638 2.8599577e-39
0.55021417 -0.17562783 0.74583477 2.8599577e-39
0.55074066 -0.17319711 0.74598032 2.8599577e-39
0.55126762 -0.17076467 0.74612635 2.8599577e-39
0.56053519 -0.16201021 0.74448544 2.8599577e-39
0.56203902 -0.15989491 0.74504626 2.8599577e-39
0.56317008 -0.1578232 0.74488854 2.8599577e-39
0.56442577 -0.15637754 0.74574351 2.8599577e-39
0.56493258 -0.15502259 0.74515837 2.8599577e-39
0.2391746 0.56098986 0.74534875 4.1326169e-39
0.24155907 0.56099474 0.7458387 4.1326169e-39
0.24348795 0.56099868 0.74523878 4.1326169e-39
0.24524219 0.56100231 0.7456283 4.1326169e-39
0.24742799 0.5610069 0.74553317 4.1326169e-39
0.25056297 0.56101334 0.74553555 4.1326169e-39
0.25358868 0.5610196 0.74522161 4.1326169e-39
0.25625899 0.56102514 0.74563724 4.1326169e-39
0.25953305 0.56103194 0.7454527 4.1326169e-39
0.26247588 0.56103802 0.74563062 4.1326169e-39
0.26535317 0.56104398 0.7455554 4.1326169e-39
0.26843724 0.56105036 0.74531102 4.1326169e-39
0.27150431 0.56105667 0.74542886 4.1326169e-39
0.27437297 0.56106263 0.7456314 4.1326169e-39
0.27748084 0.56106901 0.74575132 4.1326169e-39
0.2804459 0.56107515 0.74537015 4.1326169e-39
0.28337365 0.56108123 0.74557465 4.1326169e-39
0.28654674 0.56108779 0.74569553 4.1326169e-39
0.28928432 0.56109345 0.74545896 4.1326169e-39
0.29207399 0.56109923 0.74532157 4.1326169e-39
0.29555279 0.56110638 0.74565238 4.1326169e-39
0.29860789 0.56111276 0.7453993 4.1326169e-39
0.30051398 0.5611167 0.74560916 4.1326169e-39
0.27856147 -0.55892694 0.74719155 1.1164145e-41
0.28071308 -0.55892247 0.74831122 1.1164145e-41
0.28356609 -0.55891657 0.74868304 1.1164145e-41
0.28648368 -0.55891043 0.74850291 1.1164145e-41
0.28942314 -0.55890447 0.74832129 1.1164145e-41
0.29233113 -0.55889839 0.74869633 1.1164145e-41
0.29531062 -0.55889225 0.74851424 1.1164145e-41
0.29857597 -0.55888546 0.74861461 1.1164145e-41
0.53864682 -0.33663547 0.74967593 2.8599577e-39
0.53206336 -0.33045971 0.74846345 2.8599577e-39
0.53442472 -0.33285928 0.74788737 2.8599577e-39
0.53085136 -0.32884604 0.74764264 2.8599577e-39
0.5310511 -0.32830095 0.74969983 2.8599577e-39
0.56614786 -0.32889092 0.74951017 5.1659961e-39
0.52914971 -0.32547063 0.74896193 1.7532206e-39
0.56904262 -0.3255114 0.74849737 5.0737878e-39
0.5289768 -0.32277635 0.74879014 1.2918697e-39
0.57199293 -0.32213116 0.74743694 5.0737724e-39
0.52921331 -0.3196252 0.74826932 2.3989683e-39
0.52949691 -0.31651592 0.74815124 2.8599577e-39
0.52987379 -0.31349835 0.74884099 2.8599577e-39
0.53016335 -0.3100144 0.7484861 2.8599577e-39
0.57414037 -0.31148857 0.74959457 5.0737836e-39
0.53039163 -0.30722204 0.74820626 2.8599577e-39
0.53075373 -0.30419499 0.74891311 2.8599577e-39
0.57684368 -0.30329382 0.74884325 4.8890252e-39
0.53078341 -0.30158886 0.74772608 2.8599577e-39
0.53118014 -0.30120942 0.74954224 2.8599577e-39
0.53136122 -0.29869476 0.74816984 2.8599577e-39
0.53196096 -0.29581293 0.74858856 2.8599577e-39
0.5324294 -0.29241893 0.74801642 2.8599577e-39
0.53291893 -0.2894659 0.74856925 2.8599577e-39
0.53335148 -0.2866292 0.74861777 2.8599577e-39
0.53387856 -0.28310856 0.74855202 2.8599577e-39
0.53425521 -0.28037998 0.74809361 2.8599577e-39
0.59607786 -0.28078684 0.74985319 4.8894078e-39
0.5347113 -0.27740335 0.74868894 2.8599577e-39
0.53499591 -0.27461588 0.74834323 2.8599577e-39
0.53530461 -0.27199033 0.74835223 2.8599577e-39
0.53573108 -0.26884258 0.74860245 2.8599577e-39
0.53606248 -0.26607302 0.74820071 2.8599577e-39
0.53656924 -0.26273188 0.74850625 2.8599577e-39
0.58284426 -0.26263571 0.74901402 5.8113557e-39
0.53691381 -0.25970292 0.74793553 2.8599577e-39
0.53720546 -0.25875968 0.74911726 2.8599577e-39
0.58233243 -0.25930518 0.74958277 5.9031912e-39
0.53758073 -0.25600389 0.7486639 2.8599577e-39
0.53812236 -0.25290841 0.7487759 2.8599577e-39
0.53854525 -0.25032863 0.74864882 2.8599577e-39
0.53895032 -0.24757697 0.74816036 2.8599577e-39
0.53951168 -0.24464317 0.74863493 2.8599577e-39
0.53981614 -0.2425748 0.74826837 2.8599577e-39
0.54020548 -0.24103469 0.74894917 2.8599577e-39
0.54053432 -0.23857991 0.74832392 2.8599577e-39
0.54101306 -0.23591425 0.74836212 2.8599577e-39
0.54161191 -0.23257859 0.748411 2.8599577e-39
0.53122652 -0.22912891 0.74723941 7.2035247e-39
0.54231489 -0.22935858 0.74894714 2.8599577e-39
0.58856046 -0.22914313 0.7495665 5.7191517e-39
0.54264218 -0.22647269 0.74794215 2.8599577e-39
0.54315996 -0.22540805 0.74885631 2.8599577e-39
0.58825839 -0.2274662 0.74989855 5.8113501e-39
0.54381794 -0.22308002 0.74883604 2.8599577e-39
0.54423028 -0.22046563 0.7487269 2.8599577e-39
0.54446912 -0.21759868 0.74844193 2.8599577e-39
0.59159905 -0.21760407 0.74852329 6.4567013e-39
0.54470825 -0.21472915 0.74815679 2.8599577e-39
0.59052223 -0.21560866 0.74970263 5.9035429e-39
0.54495597 -0.21186072 0.74786133 2.8599577e-39
0.54552054 -0.20890632 0.74833882 2.8599577e-39
0.5461868 -0.20875463 0.74984312 2.8599577e-39
0.54576033 -0.20602991 0.74805331 2.8599577e-39
0.54642677 -0.20588002 0.74955851 2.8599577e-39
0.59431124 -0.20429307 0.74785203 6.6410855e-39
0.54594028 -0.20387097 0.74783909 2.8599577e-39
0.54643214 -0.20237279 0.74840331 2.8599577e-39
0.59237194 -0.20198546 0.74996817 5.8113515e-39
0.54676551 -0.19995673 0.74839038 2.8599577e-39
0.54720801 -0.19651949 0.74863166 2.8599577e-39
0.54791069 -0.19286893 0.74894691 2.8599577e-39
0.54834104 -0.19005582 0.74843723 2.8599591e-39
0.54857045 -0.18747456 0.74778229 2.8599605e-39
0.54951352 -0.18638279 0.74934781 2.9521561e-39
0.54977477 -0.18424274 0.74903953 2.9521561e-39
0.55012763 -0.18138781 0.74862313 2.9521561e-39
0.55048084 -0.17852913 0.7482062 2.9521561e-39
0.5511601 -0.17597285 0.74855423 2.8599591e-39
0.55205393 -0.17480373 0.74979866 3.0443545e-39
0.55153996 -0.1727424 0.74810749 2.8599577e-39
0.55228424 -0.17264214 0.74952841 3.0443545e-39
0.5518418 -0.1706038 0.74775201 2.8599577e-39
0.55240887 -0.16956373 0.74861676 2.9521575e-39
0.55298412 -0.16689914 0.7487067 2.9521561e-39
0.55431664 -0.16400731 0.74944097 2.9521561e-39
0.55637288 -0.1621092 0.74933428 2.8599577e-39
0.55899692 -0.16021839 0.74972481 2.8599577e-39
0.56195521 -0.15784168 0.74859667 2.8599577e-39
0.56610072 -0.15608278 0.74956411 3.8745006e-39
0.56533039 -0.1554087 0.74815339 2.8599577e-39
0.56783879 -0.1549581 0.74872428 3.8745006e-39
0.23864333 0.56098872 0.74829185 4.1326169e-39
0.24146596 0.56099457 0.74855453 4.1326169e-39
0.24347767 0.56099868 0.74907196 4.1326169e-39
0.24479866 0.56100142 0.74827194 4.1326169e-39
0.24747184 0.5610069 0.74865162 4.1326169e-39
0.25043499 0.56101304 0.74849421 4.1326169e-39
0.25342137 0.5610193 0.74833566 4.1326169e-39
0.25660411 0.56102586 0.74844831 4.1326169e-39
0.25936651 0.56103152 0.74865657 4.1326169e-39
0.26242539 0.56103784 0.74828357 4.1326169e-39
0.2656692 0.56104457 0.74861145 4.1326169e-39
0.26874575 0.56105095 0.74838024 4.1326169e-39
0.27150646 0.56105667 0.748595 4.1326169e-39
0.27467507 0.56106323 0.74850339 4.1326169e-39
0.27771243 0.56106949 0.74869424 4.1326169e-39
0.28041661 0.56107503 0.74856991 4.1326169e-39
0.28342867 0.56108129 0.74856144 4.1326169e-39
0.28646207 0.56108755 0.74855375 4.1326169e-39
0.28951725 0.56109393 0.74854428 4.1326169e-39
0.29259416 0.56110024 0.74853569 4.1326169e-39
0.29539576 0.56110609 0.74840993 4.1326169e-39
0.29858091 0.56111264 0.74860376 4.1326169e-39
0.30077964 0.56111717 0.74893945 4.1326169e-39
0.27238724 0.57383597 0.74766755 4.1326169e-39
0.28077254 -0.57196444 0.75117892 1.1164145e-41
0.28165513 -0.5589205 0.75052255 1.1164145e-41
0.28336218 -0.55891693 0.7512843 1.1164145e-41
0.28629234 -0.55891085 0.75140339 1.1164145e-41
0.28943187 -0.55890435 0.75137359 1.1164145e-41
0.29264376 -0.55889773 0.75148332 1.1164145e-41
0.2958782 -0.558891 0.75159377 1.1164145e-41
0.29861793 -0.55888534 0.75164306 1.1164145e-41
0.30026585 -0.558882 0.75136936 1.1164145e-41
0.53468454 -0.33313769 0.75216287 2.8599577e-39
0.53347236 -0.33152413 0.75134122 2.8599577e-39
0.56345105 -0.33236325 0.7503112 4.8890449e-39
0.53207409 -0.32871112 0.75189304 2.2142141e-39
0.53000677 -0.32539344 0.75097537 1.6606648e-39
0.53144485 -0.32570902 0.75227672 1.6606648e-39
0.53030521 -0.32232746 0.75175679 1.568465e-39
0.56555212 -0.32181078 0.75247586 5.1660003e-39
0.53025186 -0.31936169 0.75182146 2.4908066e-39
0.56825542 -0.31830621 0.75168151 5.1660003e-39
0.53039593 -0.31652609 0.75164586 2.8599577e-39
0.53057319 -0.31371057 0.75142974 2.8599577e-39
0.57118249 -0.31490582 0.75064766 5.1659947e-39
0.53042316 -0.31100437 0.75046682 2.8599577e-39
0.53107798 -0.31078181 0.75196022 2.8599577e-39
0.53064805 -0.30748051 0.75019211 2.8599577e-39
0.53125548 -0.30796328 0.75174415 2.8599577e-39
0.53164119 -0.3043828 0.75184709 2.8599577e-39
0.53208834 -0.30121627 0.75210458 2.8599577e-39
0.57401103 -0.30013067 0.75202537 5.1660003e-39
0.53228563 -0.29802591 0.75163609 2.8599577e-39
0.53252637 -0.29523748 0.75134361 2.8599577e-39
0.53282124 -0.29247919 0.75098532 2.8599577e-39
0.53330898 -0.28953215 0.75153935 2.8599577e-39
0.53402805 -0.2886284 0.75295591 2.8599577e-39
0.53355908 -0.28674206 0.75123608 2.8599577e-39
0.53420162 -0.28652838 0.75274628 2.8599577e-39
0.57549834 -0.28514606 0.75263703 5.1660017e-39
0.57637954 -0.28715563 0.75165075 5.1659989e-39
0.53382355 -0.28469318 0.75091541 2.8599577e-39
0.53429264 -0.28359517 0.75187349 2.8599577e-39
0.53449857 -0.28073388 0.7510134 2.8599577e-39
0.53499168 -0.27743345 0.75179178 3.0443545e-39
0.53580159 -0.27431482 0.75218654 2.9521589e-39
0.53603071 -0.27111474 0.75168145 2.9521575e-39
0.57840896 -0.27164066 0.75166517 5.2581973e-39
0.53630304 -0.26832056 0.75135291 2.9521575e-39
0.57839215 -0.26857319 0.75168389 5.2581973e-39
0.53657556 -0.26552343 0.75102407 2.9521575e-39
0.57837534 -0.265506 0.75170255 5.2581973e-39
0.53693688 -0.2632345 0.7517342 2.8599577e-39
0.53762418 -0.26226112 0.75243211 3.0443545e-39
0.57835853 -0.26243892 0.75172132 5.2581973e-39
0.53772563 -0.25970352 0.75192916 2.9521575e-39
0.57810384 -0.25925356 0.7520054 5.2581973e-39
0.53798431 -0.25689179 0.75161815 2.9521547e-39
0.5772413 -0.25653315 0.75296724 5.2581973e-39
0.58138919 -0.25653511 0.75063097 5.5347772e-39
0.53830016 -0.25410718 0.75123852 2.8599577e-39
0.57750142 -0.25308859 0.75168359 4.5202511e-39
0.58044946 -0.25377527 0.75167513 5.2581959e-39
0.53897476 -0.25050464 0.75157374 2.8599577e-39
0.57951236 -0.25102353 0.75271642 5.2581973e-39
0.58336645 -0.25007546 0.75072277 5.5347772e-39
0.53963625 -0.24763188 0.75192404 2.8599577e-39
0.54000515 -0.24608611 0.75262624 2.8599577e-39
0.58242148 -0.24732082 0.75176901 5.2581973e-39
0.53988457 -0.24432006 0.75048256 2.8599577e-39
0.54030871 -0.24402411 0.75226343 2.8599577e-39
0.58156109 -0.24461436 0.75272161 5.1660017e-39
0.54053885 -0.24159877 0.75122547 2.8599577e-39
0.54129475 -0.23818789 0.75184745 2.8599577e-39
0.58418953 -0.2384436 0.75209546 5.1663618e-39
0.54173785 -0.23560935 0.75169969 2.8599577e-39
0.5837425 -0.23593628 0.75258851 5.1663618e-39
0.54214489 -0.23284513 0.75121409 2.8599577e-39
0.54276395 -0.22993612 0.75162101 2.8599577e-39
0.54354763 -0.22670586 0.75160277 2.8599577e-39
0.5722217 -0.22761129 0.75131392 5.1660003e-39
0.58788282 -0.2257591 0.75031126 5.8113543e-39
0.54438186 -0.22366624 0.75141245 2.8599577e-39
0.58706707 -0.22386482 0.75120801 5.442583e-39
0.6042884 -0.22205278 0.75193751 1.2074431e-38
0.54548943 -0.22011468 0.75181401 2.8599577e-39
0.58584809 -0.22103417 0.75254786 5.2581973e-39
0.54546827 -0.21736285 0.75069559 2.8599577e-39
0.54706794 -0.21709888 0.75233513 5.9924301e-39
0.54570758 -0.21449602 0.75041163 2.8599577e-39
0.54637265 -0.2143409 0.75191224 2.8599577e-39
0.58944935 -0.21362068 0.75087762 5.4425788e-39
0.54588723 -0.2123443 0.75019854 2.8599577e-39
0.5464105 -0.21128517 0.75110483 2.8599577e-39
0.58838058 -0.2116401 0.75204813 5.1660017e-39
0.54718441 -0.20852745 0.75209564 2.8599577e-39
0.54742455 -0.20565559 0.75181228 2.8599577e-39
0.54766113 -0.20277956 0.75153315 2.8599577e-39
0.54789042 -0.19989783 0.75126261 2.8599577e-39
0.5900293 -0.1995329 0.75252444 5.1660017e-39
0.54811281 -0.19701068 0.75100023 2.8599577e-39
0.54841739 -0.19433427 0.75102234 2.8599577e-39
0.54894376 -0.1919256 0.75116515 2.8599577e-39
0.54948664 -0.19044818 0.75166881 2.8599577e-39
0.55013186 -0.18761988 0.75148261 2.8599577e-39
0.55119681 -0.18400629 0.7519471 2.8599577e-39
0.55152816 -0.18145941 0.75117797 2.8599605e-39
0.55211627 -0.18042918 0.75201356 2.8599577e-39
0.55167055 -0.17840198 0.75024855 3.0443545e-39
0.55249226 -0.17832822 0.75157392 2.8599577e-39
0.58968782 -0.17780121 0.75289702 2.0652183e-38
0.55321538 -0.17541666 0.75187135 2.9521561e-39
0.58996928 -0.17558351 0.75258994 1.9822432e-38
0.55359197 -0.17256156 0.75143194 3.0443545e-39
0.55389994 -0.16967785 0.75107253 3.0443545e-39
0.55528456 -0.16887742 0.7528863 3.0443545e-39
0.55432796 -0.1670229 0.75095445 3.0443545e-39
0.5555163 -0.16671261 0.75261724 3.0443545e-39
0.55487609 -0.16459772 0.75107795 3.0443545e-39
0.55561316 -0.16361763 0.75174361 2.9521575e-39
0.55720901 -0.1618717 0.75179499 2.8599577e-39
0.55944681 -0.16021915 0.75187224 2.8599577e-39
0.56244314 -0.15958759 0.75260985 3.8745006e-39
0.56263036 -0.15792049 0.7504918 3.5057068e-39
0.56540537 -0.15795919 0.75150287 3.8745006e-39
0.56836921 -0.15735959 0.75155222 3.8745006e-39
0.57137322 -0.15706529 0.75195456 3.8745006e-39
0.57374698 -0.15687697 0.75232202 3.8745006e-39
0.23634952 0.5609839 0.75191647 4.1326169e-39
0.23829976 0.56098795 0.75140804 4.1326169e-39
0.24159391 0.56099474 0.75144917 4.1326169e-39
0.24375743 0.56099921 0.75113428 4.1326169e-39
0.30258012 0.56016546 0.7524541 4.1326169e-39
0.24511814 0.56100208 0.75135595 4.1326169e-39
0.24732888 0.56100661 0.75171739 4.1326169e-39
0.25030866 0.5610128 0.75143182 4.1326169e-39
0.25344375 0.56101924 0.75145632 4.1326169e-39
0.25642562 0.56102544 0.75155026 4.1326169e-39
0.2594519 0.56103164 0.75119132 4.1326169e-39
0.26234373 0.56103766 0.75162333 4.1326169e-39
0.26546264 0.5610441 0.75153345 4.1326169e-39
0.26855075 0.56105047 0.75138408 4.1326169e-39
0.27159816 0.56105679 0.75152159 4.1326169e-39
0.27444819 0.56106263 0.7517426 4.1326169e-39
0.27737066 0.56106877 0.75138855 4.1326169e-39
0.28069186 0.56107563 0.75166172 4.1326169e-39
0.28367633 0.56108177 0.7516076 4.1326169e-39
0.28637785 0.56108737 0.75139302 4.1326169e-39
0.28955352 0.56109387 0.75153345 4.1326169e-39
0.29252207 0.56110007 0.75175923 4.1326169e-39
0.29557833 0.56110638 0.75139761 4.1326169e-39
0.29845607 0.56111228 0.7514838 4.1326169e-39
0.30048671 0.56111652 0.75131518 4.1326169e-39
0.26952118 -0.5584836 0.75585037 1.1164145e-41
0.28436205 -0.55891478 0.75343716 1.1164145e-41
0.28660935 -0.55891013 0.75436097 1.1164145e-41
0.28936598 -0.55890441 0.7544536 1.1164145e-41
0.29242104 -0.55889809 0.75459224 1.1164145e-41
0.29538211 -0.55889201 0.75443286 1.1164145e-41
0.29836547 -0.55888575 0.75427198 1.1164145e-41
0.30002934 -0.5588823 0.75575751 1.1164145e-41
0.53818524 -0.3364169 0.75480103 2.8599577e-39
0.53608948 -0.33419824 0.75503421 2.8599577e-39
0.53366792 -0.33097529 0.75339109 2.8599577e-39
0.53530765 -0.33180386 0.75483477 1.9372601e-39
0.55736208 -0.33133441 0.75503492 5.0738033e-39
0.53344643 -0.32862416 0.75365853 1.6606648e-39
0.535043 -0.32868922 0.75515282 1.6606648e-39
0.55480796 -0.32958674 0.75571299 4.9816062e-39
0.5568099 -0.32798332 0.7556712 5.0738019e-39
0.56019413 -0.32875669 0.75405049 5.1660003e-39
0.532821 -0.32524964 0.75365424 1.6606648e-39
0.53463554 -0.325838 0.75526333 1.7528646e-39
0.55894244 -0.32570362 0.75548768 5.1663618e-39
0.56286508 -0.3252942 0.75326556 5.1660003e-39
0.5327214 -0.32225999 0.75407887 2.6752049e-39
0.5340721 -0.3232404 0.75518262 3.3209498e-39
0.56085694 -0.32101893 0.75556278 5.1663618e-39
0.56133556 -0.32282215 0.75501525 5.1663618e-39
0.53269678 -0.31932756 0.75456446 3.5979053e-39
0.56349981 -0.31902355 0.7548151 5.1663618e-39
0.53246361 -0.31624532 0.7548461 3.4135098e-39
0.562778 -0.31631961 0.75563788 5.1663618e-39
0.56567317 -0.31520909 0.75461406 5.1663618e-39
0.53190506 -0.3132782 0.75438195 3.0443545e-39
0.56518871 -0.31340498 0.75516427 5.1663618e-39
0.53205824 -0.3104485 0.75419647 2.8599577e-39
0.56470513 -0.31160408 0.75571346 5.1663618e-39
0.56761187 -0.31047642 0.75468796 5.2581959e-39
0.53223604 -0.30763268 0.75398141 2.8599577e-39
0.56669813 -0.30690908 0.75572193 5.1663618e-39
0.57037735 -0.30772823 0.75383723 5.1660003e-39
0.53274029 -0.30470607 0.75451106 2.8599577e-39
0.56965482 -0.30502829 0.75465178 5.2581959e-39
0.53326136 -0.30178922 0.7550211 2.8599577e-39
0.56944978 -0.30188042 0.75488305 5.2581973e-39
0.5334605 -0.29860416 0.75455314 2.8599577e-39
0.56924474 -0.2987349 0.7551142 5.1663618e-39
0.57305837 -0.29806125 0.75309551 5.1660017e-39
0.53367037 -0.29554811 0.75414795 2.8599577e-39
0.53416818 -0.29471213 0.75506699 2.8599577e-39
0.56903994 -0.29559171 0.75534505 5.1663618e-39
0.57225007 -0.29532033 0.75400352 5.3503902e-39
0.53373897 -0.29212499 0.7533052 2.8599577e-39
0.53439927 -0.29191929 0.75478876 2.8599577e-39
0.56883538 -0.29245085 0.75557578 5.1663618e-39
0.57204342 -0.29216722 0.75423563 5.2581973e-39
0.53391242 -0.2900275 0.75309569 2.8599577e-39
0.53508157 -0.28909454 0.75510633 3.1365544e-39
0.56882489 -0.28942129 0.75558758 5.1660003e-39
0.57183695 -0.28901646 0.75446761 5.1663618e-39
0.535402 -0.28634948 0.7547214 3.2291143e-39
0.56889188 -0.28643516 0.755512 5.1660003e-39
0.57167757 -0.28589389 0.75464672 5.1660017e-39
0.53577793 -0.28363341 0.75426978 3.4135098e-39
0.53731668 -0.28365475 0.75583887 3.4135098e-39
0.568959 -0.28344825 0.7554363 5.1660003e-39
0.57172358 -0.28288567 0.75459504 5.1660003e-39
0.57470381 -0.28318852 0.75352633 5.3503916e-39
0.53615749 -0.28091529 0.75381362 3.4135098e-39
0.53769743 -0.28093645 0.75538391 3.4135098e-39
0.5690254 -0.28046027 0.75536144 5.1660003e-39
0.57178575 -0.27988568 0.75452518 5.1660003e-39
0.57457817 -0.28083733 0.753667 5.1660017e-39
0.53639162 -0.27810925 0.75353235 3.5053467e-39
0.53792316 -0.27812496 0.7551142 3.5053467e-39
0.56897938 -0.27741081 0.75541341 5.1660017e-39
0.57173461 -0.27682427 0.75458258 5.1660017e-39
0.57454914 -0.27777818 0.75369942 5.1660017e-39
0.53694147 -0.27519456 0.75401235 3.3209498e-39
0.5377301 -0.27411175 0.754776 3.3209498e-39
0.56889653 -0.27434215 0.75550681 5.1660017e-39
0.57167202 -0.27451557 0.75465292 5.1660017e-39
0.57446504 -0.27469012 0.75379366 5.1660017e-39
0.53768855 -0.27091843 0.75425649 3.136553e-39
0.56881374 -0.27127442 0.75560015 5.1660017e-39
0.57160938 -0.27220744 0.75472331 5.1660017e-39
0.57438087 -0.27160302 0.75388789 5.1660017e-39
0.53834999 -0.26806316 0.75460386 3.136553e-39
0.56873101 -0.26820758 0.75569344 5.1660017e-39
0.57152593 -0.26913074 0.75481701 5.1660017e-39
0.57429671 -0.26851681 0.75398201 5.1660017e-39
0.53856474 -0.26523617 0.75434715 3.136553e-39
0.56867743 -0.26515681 0.75575376 5.1660003e-39
0.57144248 -0.26605493 0.75491071 5.1660017e-39
0.57421267 -0.26543149 0.75407618 5.1660017e-39
0.53922695 -0.26237696 0.75469524 3.0443573e-39
0.56866765 -0.26212907 0.75576484 5.1660003e-39
0.57136607 -0.26298356 0.75499666 5.1660003e-39
0.57412857 -0.26234713 0.7541703 5.1660017e-39
0.53940052 -0.2595233 0.75448811 3.0443545e-39
0.56865782 -0.25910142 0.75577593 5.1660003e-39
0.57134461 -0.25994098 0.75502074 5.1660003e-39
0.57404578 -0.25926435 0.75426292 5.1660003e-39
0.53953016 -0.25664428 0.7543335 3.0443531e-39
0.56864798 -0.25607389 0.75578701 5.1660003e-39
0.57132471 -0.25689939 0.75504309 5.1659989e-39
0.57387805 -0.2561402 0.75445068 5.1659989e-39
0.53925318 -0.25381422 0.75352478 2.9521547e-39
0.54007614 -0.25371847 0.75482118 3.0443531e-39
0.56856501 -0.25301021 0.75588059 5.1659989e-39
0.57116222 -0.25378734 0.75522554 5.1659989e-39
0.57369125 -0.25300846 0.75465977 5.1660003e-39
0.57651663 -0.25388789 0.75377554 5.1660017e-39
0.53951126 -0.25099865 0.75321645 2.8599577e-39
0.54063976 -0.25080138 0.75528777 2.9521561e-39
0.57096243 -0.25065872 0.75545013 5.1659989e-39
0.57350534 -0.24987924 0.75486779 5.1660003e-39
0.57715052 -0.25021467 0.75382835 5.1660003e-39
0.54087871 -0.24797481 0.75500369 2.8599577e-39
0.57076263 -0.24753231 0.75567448 5.1659989e-39
0.57336599 -0.24753357 0.75502378 5.1660003e-39
0.5774262 -0.24721396 0.75390059 5.1660003e-39
0.5411309 -0.24476032 0.75447637 2.8599577e-39
0.57056308 -0.24440818 0.75589859 5.1659989e-39
0.57456136 -0.24481837 0.75482368 5.1660003e-39
0.57862788 -0.24448715 0.75369924 5.1660003e-39
0.54161471 -0.24135859 0.75435668 2.8599577e-39
0.57299471 -0.24128442 0.75543928 5.1660003e-39
0.57482547 -0.2418205 0.75490683 5.1660003e-39
0.5784865 -0.24213022 0.75385636 5.1660003e-39
0.58118641 -0.24137527 0.75313652 5.1660003e-39
0.54196697 -0.23834872 0.75409013 2.8599577e-39
0.54302418 -0.23722304 0.75587016 2.8599577e-39
0.5726409 -0.2388428 0.75583541 5.1660003e-39
0.57523811 -0.23805204 0.75520134 5.1660003e-39
0.57812691 -0.2389102 0.75425595 5.1660003e-39
0.58076721 -0.23812017 0.7536006 5.1660003e-39
0.54251325 -0.23524918 0.75420117 2.8599577e-39
0.54323697 -0.23511094 0.75561869 2.8599577e-39
0.57484359 -0.23558916 0.75564134 5.1660003e-39
0.57759655 -0.23561576 0.75484526 5.1660003e-39
0.58036637 -0.23564212 0.75404441 5.1660003e-39
0.54280287 -0.2324319 0.75385761 2.8599577e-39
0.54359639 -0.23232855 0.75519383 3.2291115e-39
0.57460892 -0.23396216 0.75590295 5.1660003e-39
0.57706726 -0.23232755 0.75543344 5.1660003e-39
0.57996607 -0.23316799 0.75448751 5.1660003e-39
0.58314753 -0.23259902 0.75324482 5.1663618e-39
0.54405224 -0.22958808 0.75465459 3.0447161e-39
0.57670391 -0.22988008 0.75583714 5.1660003e-39
0.57943332 -0.22987431 0.75507748 5.1660003e-39
0.5825538 -0.2292687 0.75389981 5.1663618e-39
0.54481632 -0.22675005 0.75489002 3.4135098e-39
0.57880676 -0.22578253 0.7557711 5.1660003e-39
0.58042562 -0.22626245 0.75511599 5.1660017e-39
0.58210933 -0.22677533 0.75439018 5.1663618e-39
0.54522544 -0.22358048 0.75417918 3.0443559e-39
0.5812555 -0.22334357 0.75533205 5.2581973e-39
0.54586452 -0.22181757 0.75479162 2.8599577e-39
0.54630864 -0.21979621 0.75426853 2.8599577e-39
0.58094418 -0.22091709 0.75567555 5.1660017e-39
0.54707545 -0.21734624 0.75473106 2.8599577e-39
0.58068764 -0.21851623 0.75595856 5.1660017e-39
0.58423042 -0.21727782 0.75432587 5.2581973e-39
0.54736853 -0.21410859 0.75415921 2.8599577e-39
0.58313668 -0.2145212 0.75552815 5.4425858e-39
0.54760838 -0.21124372 0.75387728 2.8599577e-39
0.58287859 -0.2121186 0.75581175 1.0788796e-38
0.54849052 -0.20821616 0.75511706 2.8599577e-39
0.5867852 -0.20868392 0.75379527 5.1660017e-39
0.54858738 -0.20560633 0.75462466 2.8599577e-39
0.54907638 -0.20453678 0.75556773 2.8599577e-39
0.58525074 -0.20499663 0.75547588 5.1660031e-39
0.54861528 -0.20254053 0.75383365 2.8599577e-39
0.54923999 -0.20237719 0.75537646 2.8599577e-39
0.58515882 -0.20189303 0.75557649 5.1660031e-39
0.54883355 -0.19965708 0.75357759 2.8599577e-39
0.54945827 -0.19949576 0.75512123 2.8599577e-39
0.58506703 -0.19879045 0.75567698 5.1660031e-39
0.54899728 -0.19749303 0.75338548 2.8599577e-39
0.5494867 -0.1964245 0.75432968 2.8599577e-39
0.58499819 -0.19646414 0.75575244 5.1660031e-39
0.58834791 -0.19657624 0.75435925 5.1660031e-39
0.5495829 -0.19380449 0.75383759 2.8599577e-39
0.58492935 -0.19413844 0.75582778 5.1660031e-39
0.58825523 -0.19346286 0.75446033 5.1660031e-39
0.55053759 -0.190804 0.7549963 2.8599577e-39
0.58485639 -0.19104531 0.75590777 1.1155028e-38
0.58818865 -0.19036014 0.75453293 1.2447212e-38
0.55105174 -0.18762165 0.75416863 2.8599577e-39
0.58512938 -0.1880804 0.7556088 1.7051496e-38
0.58847165 -0.18738565 0.75422424 1.9913173e-38
0.55182803 -0.18515362 0.75462872 2.8599577e-39
0.55242699 -0.18369801 0.75506753 2.9521575e-39
0.58550143 -0.18514863 0.75520122 1.6959662e-38
0.58884525 -0.18444087 0.75381649 2.019012e-38
0.55287486 -0.18129483 0.75477421 2.9521561e-39
0.58300829 -0.18156108 0.75566924 1.1417822e-38
0.58602339 -0.18149829 0.75462961 1.7328806e-38
0.58921945 -0.18149227 0.75340819 2.0467068e-38
0.55361938 -0.17791647 0.75436366 2.8599591e-39
0.58333915 -0.17861691 0.75530553 1.077209e-38
0.58655834 -0.17784598 0.75404376 1.7697228e-38
0.58950043 -0.1792784 0.75310159 2.0835852e-38
0.55438405 -0.17540956 0.75468928 2.9521561e-39
0.5550251 -0.17440024 0.75546193 3.136553e-39
0.58345437 -0.17559411 0.75517893 1.2342303e-38
0.58682704 -0.17486405 0.75374943 1.8436604e-38
0.55467188 -0.17239924 0.7535975 2.8599577e-39
0.55534017 -0.17227307 0.75509751 3.136553e-39
0.58356965 -0.17257006 0.75505227 1.5392358e-38
0.58694345 -0.17182748 0.753622 1.6042806e-38
0.55598766 -0.16959102 0.75480288 2.9521589e-39
0.58368492 -0.16954482 0.75492549 1.0511846e-38
0.58703077 -0.1695493 0.75352633 9.7750125e-39
0.55668092 -0.16658489 0.75468427 2.9521575e-39
0.58380032 -0.16651833 0.75479871 5.442583e-39
0.55710709 -0.16373755 0.75419229 3.0443559e-39
0.55989057 -0.16324069 0.75553524 4.2432943e-39
0.56211036 -0.16214377 0.75526547 4.058896e-39
0.58065146 -0.16200224 0.75599849 2.6755706e-39
0.5838868 -0.16424769 0.75470364 4.4280541e-39
0.55959988 -0.16142906 0.75397587 3.874502e-39
0.56299251 -0.16093504 0.7542581 3.8745006e-39
0.56576669 -0.16059133 0.75450796 3.9666976e-39
0.5685066 -0.16023114 0.75481248 3.8745006e-39
0.57094866 -0.15962751 0.75470901 3.874502e-39
0.57407212 -0.1595218 0.75536913 3.9666976e-39
0.58070862 -0.1604937 0.75593543 2.3986166e-39
0.5687207 -0.15895732 0.75343335 3.8745006e-39
0.5727582 -0.1580801 0.75343269 3.8745006e-39
0.57506031 -0.15832096 0.75426507 3.8745006e-39
0.57813883 -0.15864304 0.75537813 3.8745006e-39
0.23604026 0.56098324 0.75450623 4.1326169e-39
0.238621 0.56098855 0.7544685 4.1326169e-39
0.24142231 0.56099433 0.7547493 4.1326169e-39
0.24357629 0.5609988 0.7544452 4.1326169e-39
0.24514368 0.56100202 0.75437361 4.1326169e-39
0.24769197 0.56100732 0.75446284 4.1326169e-39
0.25066116 0.56101346 0.75439626 4.1326169e-39
0.25329107 0.56101888 0.75462329 4.1326169e-39
0.25625336 0.56102502 0.75441974 4.1326169e-39
0.25947452 0.5610317 0.75455332 4.1326169e-39
0.26246846 0.56103784 0.75441915 4.1326169e-39
0.26525006 0.56104362 0.75464541 4.1326169e-39
0.2683579 0.56105006 0.75436634 4.1326169e-39
0.27159986 0.56105679 0.7546466 4.1326169e-39
0.27449298 0.56106275 0.75430584 4.1326169e-39
0.27735308 0.56106871 0.75453502 4.1326169e-39
0.28045189 0.56107509 0.75468534 4.1326169e-39
0.28340971 0.56108117 0.75434107 4.1326169e-39
0.28632846 0.56108719 0.75457269 4.1326169e-39
0.28949189 0.56109375 0.7547248 4.1326169e-39
0.29251662 0.56110007 0.75437707 4.1326169e-39
0.29549575 0.56110615 0.75461143 4.1326169e-39
0.29856494 0.56111252 0.75426072 4.1326169e-39
0.30082399 0.56111723 0.75401723 4.1326169e-39
0.28745556 -0.55890834 0.75676805 1.1164145e-41
0.2897079 -0.55890363 0.75769728 1.1164145e-41
0.2925182 -0.55889785 0.75733227 1.1164145e-41
0.29549402 -0.55889165 0.75768429 1.1164145e-41
0.29834473 -0.55888575 0.75731677 1.1164145e-41
0.30024898 -0.55888188 0.75783777 1.1164145e-41
0.26635364 -0.55381972 0.75640333 1.1164145e-41
0.53987354 -0.3361997 0.75733268 3.1361732e-39
0.54189396 -0.33655095 0.75833833 1.9376216e-39
0.56891781 -0.33758491 0.75769424 4.9816034e-39
0.53856295 -0.33451873 0.75662363 3.3205631e-39
0.54159993 -0.33419973 0.75800723 3.5971486e-39
0.53689206 -0.33186036 0.75634634 1.6606648e-39
0.53852093 -0.33081532 0.75667298 2.2142183e-39
0.54146123 -0.33144337 0.75771862 4.1503224e-39
0.54425466 -0.33123183 0.75895071 5.9946147e-39
0.55330408 -0.33009601 0.75745225 3.6901079e-39
0.53664005 -0.32875431 0.75664753 1.6606648e-39
0.53914702 -0.3279579 0.75706291 2.4908122e-39
0.54184401 -0.32876635 0.75771916 2.3986026e-39
0.5443356 -0.32907319 0.75885558 5.9020295e-39
0.55337799 -0.32749543 0.75623554 4.9816048e-39
0.53601259 -0.32537848 0.75664145 3.1365558e-39
0.53893393 -0.325611 0.75731611 3.1365614e-39
0.54159617 -0.3256422 0.75755811 2.9521645e-39
0.54392028 -0.32567152 0.75843972 2.2138554e-39
0.55060422 -0.3248665 0.75718951 4.4284156e-39
0.55418754 -0.3254548 0.75643051 5.0738019e-39
0.55643541 -0.3254993 0.75610268 5.0738019e-39
0.53560483 -0.32252985 0.75675118 3.5979053e-39
0.53865016 -0.32248467 0.75765342 4.5202539e-39
0.54131031 -0.32250896 0.75789601 4.3362186e-39
0.54388666 -0.32246983 0.75825334 3.5057138e-39
0.54616666 -0.32149404 0.75896972 4.0588988e-39
0.55040711 -0.32251167 0.75741827 4.9816062e-39
0.55369222 -0.32215589 0.75700331 5.0738019e-39
0.55606139 -0.32301909 0.75653362 5.0738019e-39
0.55819178 -0.32223037 0.75634944 5.0738019e-39
0.53535378 -0.31943294 0.75705177 3.5979053e-39
0.53836662 -0.31936172 0.75799036 4.7968478e-39
0.54193807 -0.31964588 0.75828689 4.7968464e-39
0.54453927 -0.31887874 0.75861669 4.7968464e-39
0.54739261 -0.3196024 0.75829154 4.9816048e-39
0.55108929 -0.31965438 0.75775576 5.0738019e-39
0.55319786 -0.31886306 0.75757509 5.0738019e-39
0.55662727 -0.31931981 0.75701588 5.0738019e-39
0.56037909 -0.31921881 0.7561093 5.1663618e-39
0.53510296 -0.31633908 0.75735193 3.5979053e-39
0.53782827 -0.3166742 0.75825316 4.797208e-39
0.54165214 -0.31651685 0.75862426 4.797208e-39
0.54431641 -0.3165226 0.75887823 4.7972066e-39
0.54776388 -0.31715825 0.75861162 5.0738019e-39
0.55059868 -0.31637353 0.75832522 5.0738019e-39
0.5538851 -0.31599769 0.75791311 5.0738019e-39
0.55625337 -0.31684494 0.75744593 5.0738019e-39
0.55967599 -0.31653228 0.75691366 5.0741634e-39
0.53325957 -0.31318608 0.75616068 3.5979053e-39
0.5352608 -0.31317163 0.75784355 3.7826637e-39
0.5381971 -0.31425169 0.75856882 4.797208e-39
0.54108554 -0.31356406 0.7589162 4.7972066e-39
0.54813254 -0.31471264 0.75893378 5.0738019e-39
0.55022889 -0.31391513 0.75875437 5.0738019e-39
0.55351406 -0.31353325 0.75834137 5.0738019e-39
0.55694151 -0.313972 0.75778496 5.0738019e-39
0.55907309 -0.31316492 0.75760341 5.0738019e-39
0.56205779 -0.313622 0.7564587 5.1663618e-39
0.53307688 -0.31014147 0.75638056 3.2287514e-39
0.53529561 -0.31028438 0.758255 3.9670605e-39
0.5385654 -0.31182891 0.75888455 4.797208e-39
0.55340952 -0.3103883 0.75883836 5.0738019e-39
0.55644262 -0.31067902 0.75835776 5.0738019e-39
0.55857164 -0.30986619 0.75817704 5.0738019e-39
0.56133974 -0.31093225 0.75727713 5.1663618e-39
0.5642224 -0.30980635 0.75626165 5.1663618e-39
0.53355604 -0.30720276 0.75693893 3.0443545e-39
0.53488255 -0.3070955 0.7587477 3.5979053e-39
0.55606586 -0.30821121 0.75879025 5.0738019e-39
0.55971593 -0.30740598 0.75837684 5.0738033e-39
0.56354427 -0.30714247 0.75703186 5.1663618e-39
0.533674 -0.30508256 0.75679719 2.8599577e-39
0.53450775 -0.30389968 0.75844145 3.0447161e-39
0.55794072 -0.30574793 0.75889874 5.0738019e-39
0.5603447 -0.30433768 0.75841135 5.1660003e-39
0.56319702 -0.30392998 0.75742614 5.1663618e-39
0.56641304 -0.30447686 0.75604457 5.1663618e-39
0.5345791 -0.30136627 0.75797874 2.8599577e-39
0.56040788 -0.3013812 0.75833941 5.1660003e-39
0.56311834 -0.3008796 0.75751543 5.1660003e-39
0.5662607 -0.30212539 0.75621688 5.1663618e-39
0.53485662 -0.29861099 0.75764656 3.1365544e-39
0.56047326 -0.29842538 0.75826484 5.1660003e-39
0.56318438 -0.29791456 0.75744057 5.1660003e-39
0.56605768 -0.29899207 0.7564466 5.1663618e-39
0.5354743 -0.29573083 0.75758755 3.1369159e-39
0.55788529 -0.29600996 0.75896215 5.1660003e-39
0.56053865 -0.29546878 0.75819027 5.1660003e-39
0.5632503 -0.29494882 0.75736558 5.1660003e-39
0.56594563 -0.29591325 0.75657344 5.1660003e-39
0.58041543 -0.29625845 0.75742668 5.8113543e-39
0.53576565 -0.29265195 0.75704473 3.3213114e-39
0.5372014 -0.29180056 0.75824398 3.4135098e-39
0.5579381 -0.29305458 0.75890177 5.1660003e-39
0.56060416 -0.29251152 0.75811565 5.1660003e-39
0.56331629 -0.29198235 0.75729072 5.1660003e-39
0.56601202 -0.29293784 0.75649822 5.1660003e-39
0.53655678 -0.28907949 0.75674701 3.4135098e-39
0.53809357 -0.28910115 0.75831413 3.4135098e-39
0.5579778 -0.29083771 0.75885642 5.1660003e-39
0.55978113 -0.28948891 0.75830275 5.1660003e-39
0.56338227 -0.28901514 0.75721574 5.1660003e-39
0.56607854 -0.28996176 0.756423 5.1660003e-39
0.53684151 -0.28704721 0.75640672 3.4135098e-39
0.53818578 -0.28625065 0.75752527 3.4135098e-39
0.55938941 -0.28686848 0.75837362 5.1660003e-39
0.56344831 -0.28604728 0.75714076 5.1660003e-39
0.56614512 -0.28698492 0.75634772 5.1660003e-39
0.53885573 -0.28367603 0.75740838 3.4135098e-39
0.54049063 -0.28301817 0.75886488 3.4135098e-39
0.55945206 -0.28391221 0.75830209 5.1660003e-39
0.56351435 -0.28307867 0.75706577 5.1660003e-39
0.5662117 -0.2840074 0.75627238 5.1660003e-39
0.53923762 -0.28095758 0.75695449 3.4135098e-39
0.54077798 -0.28097868 0.75852519 3.4135098e-39
0.5594961 -0.28094491 0.75825185 5.1660003e-39
0.56355202 -0.28009373 0.7570231 5.1660003e-39
0.56627828 -0.28102916 0.75619704 5.1660003e-39
0.53945494 -0.27814078 0.75669611 3.5053467e-39
0.5409869 -0.27815652 0.75827825 3.5053467e-39
0.55919778 -0.27754626 0.75836647 5.0738047e-39
0.56347889 -0.27704796 0.75710607 5.1660017e-39
0.56624103 -0.27799371 0.75623918 5.1660017e-39
0.53956765 -0.27476382 0.75678903 3.5053467e-39
0.54099846 -0.27448463 0.7582646 3.5053467e-39
0.55589867 -0.2745766 0.75898218 5.0738019e-39
0.55947214 -0.27420092 0.75827909 5.0738033e-39
0.56340015 -0.27399996 0.75719547 5.1660003e-39
0.56615889 -0.27493444 0.7563321 5.1660017e-39
0.53939921 -0.27125055 0.75653547 3.3209512e-39
0.54101002 -0.27081257 0.75825095 3.5053467e-39
0.55594748 -0.27162242 0.75892615 5.0738019e-39
0.55949187 -0.27121967 0.75825644 5.0738033e-39
0.56337535 -0.27098164 0.75722361 5.1660003e-39
0.56607682 -0.2718761 0.75642502 5.1660017e-39
0.5405941 -0.26791698 0.75761116 3.2287514e-39
0.5559963 -0.2686677 0.75887012 5.0738019e-39
0.55951166 -0.26823819 0.75823379 5.0738033e-39
0.56336576 -0.26797158 0.75723457 5.1660003e-39
0.56602108 -0.26883253 0.75648808 5.1660003e-39
0.54079324 -0.26508236 0.7573753 3.0443573e-39
0.55604506 -0.26571247 0.7588141 5.0738019e-39
0.55953139 -0.26525643 0.7582112 5.0738033e-39
0.56335604 -0.26496163 0.75724554 5.1660003e-39
0.56601131 -0.26581365 0.75649917 5.1660003e-39
0.54095149 -0.26222348 0.75718784 3.0443531e-39
0.55609393 -0.26275665 0.75875813 5.0738019e-39
0.55955118 -0.26227453 0.75818861 5.0738033e-39
0.56334639 -0.26195177 0.75725651 5.1660003e-39
0.56600153 -0.26279485 0.75651014 5.1660003e-39
0.54149693 -0.25930142 0.75767499 3.0443531e-39
0.55612886 -0.25979316 0.75871789 5.0738033e-39
0.55958134 -0.25929776 0.75815403 5.0738019e-39
0.56333673 -0.25894204 0.75726748 5.1660003e-39
0.56599176 -0.25977618 0.75652122 5.1660003e-39
0.54162401 -0.25642309 0.75752473 3.0443531e-39
0.55597055 -0.25672966 0.75889975 5.1660003e-39
0.55962378 -0.25632691 0.75810564 5.0738019e-39
0.56332707 -0.25593245 0.75727844 5.1660003e-39
0.5659821 -0.25675759 0.75653219 5.1660003e-39
0.54175115 -0.25354335 0.75737435 3.0443531e-39
0.55956888 -0.25330639 0.75816858 5.0738033e-39
0.56331742 -0.25292292 0.75728947 5.1660003e-39
0.56597233 -0.25373912 0.75654322 5.1660003e-39
0.54229712 -0.25061888 0.75786215 3.0443531e-39
0.5594421 -0.25025055 0.75831348 5.1660003e-39
0.56328887 -0.24990419 0.75732189 5.1659989e-39
0.56588393 -0.25068185 0.7566433 5.1659989e-39
0.56836665 -0.24989066 0.75610423 5.1659989e-39
0.54242456 -0.24773681 0.75771183 3.0443531e-39
0.55794787 -0.24751835 0.75889069 5.1660003e-39
0.56052965 -0.24754465 0.75820053 5.1660003e-39
0.5631023 -0.24755903 0.75753379 5.1660003e-39
0.56568706 -0.24757247 0.75686598 5.1659989e-39
0.56821799 -0.24755238 0.75627184 5.1659989e-39
0.54247665 -0.24514568 0.75727272 2.8599591e-39
0.54303861 -0.24410819 0.7581197 2.8599577e-39
0.56013417 -0.2443565 0.75865132 5.1660003e-39
0.56277561 -0.24514729 0.75790477 5.1660003e-39
0.56534183 -0.24439342 0.75725675 5.1660003e-39
0.5680694 -0.24521552 0.75643933 5.1659989e-39
0.54259926 -0.24144179 0.75637245 2.8599577e-39
0.54357576 -0.24175191 0.75824136 3.4135098e-39
0.55982906 -0.24196397 0.75899905 5.1660003e-39
0.56235743 -0.24194397 0.7583797 5.1660003e-39
