# .PCD v0.7 - Point Cloud Data file format
VERSION 0.7
FIELDS x y z rgb
SIZE 4 4 4 4
TYPE F F F F
COUNT 1 1 1 1
WIDTH 1003
HEIGHT 1
VIEWPOINT 0 0 0 1 0 0 0
POINTS 1003
DATA ascii
0.5715791 0.083055526 0.6099999 1.0786889e-38
0.57466686 0.082353465 0.60999995 1.0786889e-38
0.57776803 0.082500026 0.60999995 1.0786889e-38
0.58088601 0.082647391 0.60999995 1.0786889e-38
0.58401752 0.081939116 0.61000001 1.0786889e-38
0.58603913 0.08197666 0.61019123 1.0878724e-38
0.58927298 0.082184002 0.61000001 1.0786889e-38
0.59244561 0.082331836 0.61000007 1.0786889e-38
0.59563553 0.082480475 0.61000007 1.0786889e-38
0.59883958 0.08262977 0.61000007 1.0786889e-38
0.60098487 0.082729734 0.61000007 1.0786889e-38
0.60421711 0.082880348 0.61000013 1.0786889e-38
0.60746366 0.083031625 0.61000007 1.0786889e-38
0.61072809 0.082309671 0.61000019 1.0786889e-38
0.61400712 0.082460284 0.61000019 1.0786889e-38
0.61620283 0.082561128 0.61000025 1.0786889e-38
0.61987954 0.082142912 0.61000025 1.0786889e-38
0.62283409 0.081983589 0.61000037 1.0786889e-38
0.62505937 0.08208432 0.61000031 1.0786889e-38
0.62841231 0.082236089 0.61000037 1.0786889e-38
0.63178027 0.082388543 0.61000031 1.0786889e-38
0.63403571 0.082490638 0.61000037 1.0786889e-38
0.63743424 0.082644463 0.61000043 1.0786889e-38
0.64084816 0.082799003 0.61000037 1.0786889e-38
0.64313436 0.082902484 0.61000037 1.0786889e-38
0.64619565 0.082741491 0.61000049 1.0786889e-38
0.65004009 0.082314849 0.61000037 1.0786889e-38
0.6523577 0.082418203 0.61000055 1.0786889e-38
0.65468335 0.08252193 0.61000049 1.0786889e-38
0.65818775 0.082678229 0.61000061 1.0786889e-38
0.66170835 0.081927255 0.61000055 1.0786889e-38
0.6640662 0.08203084 0.61000061 1.0786889e-38
0.66761935 0.082186937 0.61000061 1.0786889e-38
0.67118901 0.082343765 0.61000067 1.0786889e-38
0.67357981 0.082448795 0.61000067 1.0786889e-38
0.67597896 0.082554199 0.61000061 1.0786889e-38
0.6795944 0.082713038 0.61000067 1.0786889e-38
0.68322676 0.082872622 0.61000073 1.0786889e-38
0.68565971 0.0829795 0.61000079 1.0786889e-38
0.68810123 0.082161218 0.61000073 1.0786889e-38
0.69055128 0.082267225 0.61000073 1.0786889e-38
0.69424373 0.082426988 0.61000079 1.0786889e-38
0.69795358 0.08258751 0.61000085 1.0786889e-38
0.70043862 0.08269503 0.61000079 1.0786889e-38
0.70293236 0.082802929 0.61000085 1.0786889e-38
0.70669085 0.082027614 0.61000091 1.0786889e-38
0.71046716 0.082188502 0.61000091 1.0786889e-38
0.71299678 0.08229626 0.61000097 1.0786889e-38
0.71553546 0.082404412 0.61000097 1.0786889e-38
0.71808338 0.082512967 0.61000091 1.0786889e-38
0.72064024 0.082621887 0.61000103 1.0786889e-38
0.72449422 0.082786083 0.61000097 1.0786889e-38
0.72836679 0.082951061 0.61000097 1.0786889e-38
0.73096091 0.082107484 0.61000109 1.0786889e-38
0.7335645 0.082216673 0.61000109 1.0786889e-38
0.73617762 0.082326256 0.61000109 1.0786889e-38
0.73880023 0.082436241 0.61000109 1.0786889e-38
0.74143231 0.082546622 0.61000115 1.0786889e-38
0.74539995 0.082713008 0.61000109 1.0786889e-38
0.74938691 0.082880206 0.61000121 1.0786889e-38
0.75205803 0.082024097 0.61000115 1.0786889e-38
0.75473881 0.082134739 0.61000121 1.0786889e-38
0.75742966 0.082245782 0.61000121 1.0786889e-38
0.76013029 0.082357243 0.61000133 1.0786889e-38
0.76284105 0.082469121 0.61000133 1.0786889e-38
0.76556194 0.082581408 0.61000133 1.0786889e-38
0.76829284 0.082694121 0.61000133 1.0786889e-38
0.77240968 0.082864016 0.61000133 1.0786889e-38
0.77654696 0.082050338 0.61000139 1.0786889e-38
0.77931905 0.082162902 0.61000133 1.0786889e-38
0.78210139 0.082275882 0.61000144 1.0786889e-38
0.78489423 0.08238928 0.6100015 1.0786889e-38
0.78769773 0.082503125 0.61000144 1.0786889e-38
0.79051167 0.08261738 0.6100015 1.0786889e-38
0.79333639 0.082732081 0.61000144 1.0786889e-38
0.79617172 0.082847208 0.6100015 1.0786889e-38
0.79901779 0.082962774 0.61000156 1.0786889e-38
0.80187482 0.082077496 0.61000156 1.0786889e-38
0.80474263 0.082192034 0.61000156 1.0786889e-38
0.80762148 0.082307011 0.61000156 1.0786889e-38
0.81051129 0.082422428 0.61000162 1.0786889e-38
0.81341231 0.082538292 0.61000156 1.0786889e-38
0.81632441 0.082654603 0.61000156 1.0786889e-38
0.81924766 0.082771353 0.61000162 1.0786889e-38
0.82218206 0.082888551 0.61000168 1.0786889e-38
0.82512802 0.081989445 0.61000168 1.0786889e-38
0.8280853 0.082105592 0.61000174 1.0786889e-38
0.83105415 0.082222179 0.61000174 1.0786889e-38
0.83403444 0.082339235 0.61000168 1.0786889e-38
0.8370263 0.082456738 0.61000186 1.0786889e-38
0.84002995 0.082574695 0.6100018 1.0786889e-38
0.84304529 0.08269313 0.6100018 1.0786889e-38
0.84607238 0.082812011 0.61000186 1.0786889e-38
0.8491115 0.08293137 0.61000186 1.0786889e-38
0.85216242 0.08305119 0.61000186 1.0786889e-38
0.85522544 0.082134679 0.61000192 1.0786889e-38
0.85830057 0.082253411 0.61000192 1.0786889e-38
0.86138779 0.082372591 0.61000198 1.0786889e-38
0.86448729 0.082492262 0.61000204 1.0786889e-38
0.86759925 0.08261241 0.61000198 1.0786889e-38
0.33162954 0.085320741 0.60999829 1.0786889e-38
0.33502108 0.085528433 0.60999835 1.0786889e-38
0.33775094 0.085695624 0.60999829 1.0786889e-38
0.3404952 0.08586368 0.60999835 1.0786889e-38
0.34325403 0.086032636 0.60999835 1.0786889e-38
0.3460274 0.085504621 0.60999846 1.0786889e-38
0.34951577 0.085015751 0.60999846 1.0786889e-38
0.35302585 0.085226044 0.60999846 1.0786889e-38
0.35585138 0.085395321 0.60999846 1.0786889e-38
0.35869211 0.085565507 0.60999846 1.0786889e-38
0.36154819 0.08573661 0.60999852 1.0786889e-38
0.3644197 0.085908636 0.60999852 1.0786889e-38
0.36730665 0.086081594 0.60999852 1.0786889e-38
0.37006378 0.085247144 0.60999852 1.0786889e-38
0.37312782 0.084998548 0.60999858 1.0786889e-38
0.37606218 0.08517044 0.60999858 1.0786889e-38
0.37901264 0.085343279 0.60999858 1.0786889e-38
0.38197929 0.085517056 0.60999864 1.0786889e-38
0.38496226 0.085691787 0.6099987 1.0786889e-38
0.38796169 0.085867487 0.6099987 1.0786889e-38
0.39097768 0.086044163 0.6099987 1.0786889e-38
0.39416251 0.085792549 0.6099987 1.0786889e-38
0.39706004 0.084936805 0.60999876 1.0786889e-38
0.4001267 0.085112356 0.60999882 1.0786889e-38
0.40321052 0.085288897 0.6099987 1.0786889e-38
0.40631151 0.085466415 0.60999882 1.0786889e-38
0.40943012 0.085644953 0.60999882 1.0786889e-38
0.41256624 0.085824482 0.60999882 1.0786889e-38
0.41572011 0.086005025 0.60999882 1.0786889e-38
0.41889191 0.08618661 0.60999882 1.0786889e-38
0.42208165 0.084872246 0.60999894 1.0786889e-38
0.42448539 0.085006654 0.60999894 1.0786889e-38
0.42690054 0.085141689 0.609999 1.0786889e-38
0.43013617 0.085322626 0.609999 1.0786889e-38
0.43339038 0.085504584 0.609999 1.0786889e-38
0.43666336 0.085687593 0.609999 1.0786889e-38
0.43995523 0.085871659 0.60999906 1.0786889e-38
0.44243604 0.086010374 0.60999906 1.0786889e-38
0.44492888 0.086149767 0.60999906 1.0786889e-38
0.44854793 0.085075043 0.60999912 1.0786889e-38
0.45162821 0.084988058 0.60999912 1.0786889e-38
0.45500726 0.085172504 0.60999918 1.0786889e-38
0.45755392 0.085311517 0.60999918 1.0786889e-38
0.46011311 0.085451201 0.60999918 1.0786889e-38
0.46354219 0.085638374 0.60999918 1.0786889e-38
0.46699151 0.08582665 0.60999918 1.0786889e-38
0.46959126 0.085968554 0.60999924 1.0786889e-38
0.47220391 0.086111166 0.60999924 1.0786889e-38
0.47570473 0.085518077 0.6099993 1.0786889e-38
0.47834343 0.084874421 0.6099993 1.0786889e-38
0.48099533 0.08501564 0.6099993 1.0786889e-38
0.48454884 0.085204884 0.60999924 1.0786889e-38
0.48722732 0.085347518 0.60999942 1.0786889e-38
0.48991925 0.085490867 0.60999942 1.0786889e-38
0.49352673 0.085682973 0.60999942 1.0786889e-38
0.49624592 0.085827768 0.60999942 1.0786889e-38
0.49897885 0.085973307 0.60999948 1.0786889e-38
0.50233531 0.085884482 0.60999942 1.0786889e-38
0.50540227 0.085511424 0.60999954 1.0786889e-38
0.50848627 0.085136004 0.60999942 1.0786889e-38
0.51189619 0.085044652 0.60999954 1.0786889e-38
0.51469964 0.085190222 0.60999954 1.0786889e-38
0.51751757 0.085336536 0.6099996 1.0786889e-38
0.52034712 0.085483447 0.60999954 1.0786889e-38
0.52319121 0.08563111 0.60999966 1.0786889e-38
0.52700317 0.085829034 0.6099996 1.0786889e-38
0.52987689 0.085978247 0.60999966 1.0786889e-38
0.532444 0.085837267 0.60999966 1.0786889e-38
0.53566635 0.085454755 0.60999966 1.0786889e-38
0.53890705 0.085069738 0.60999966 1.0786889e-38
0.54151046 0.084926322 0.60999978 1.0786889e-38
0.54445422 0.085075244 0.60999972 1.0786889e-38
0.54741013 0.085224777 0.60999984 1.0786889e-38
0.55038178 0.085375123 0.60999978 1.0786889e-38
0.55336607 0.085526094 0.60999972 1.0786889e-38
0.55636603 0.08567787 0.60999984 1.0786889e-38
0.55937886 0.085830286 0.60999984 1.0786889e-38
0.56240773 0.085983515 0.6099999 1.0786889e-38
0.5654496 0.086137407 0.6099999 1.0786889e-38
0.56850779 0.085446164 0.6099999 1.0786889e-38
0.5715791 0.085599504 0.6099999 1.0786889e-38
0.57466686 0.084903613 0.60999995 1.0786889e-38
0.57776803 0.085056365 0.60999995 1.0786889e-38
0.58088601 0.085209958 0.60999995 1.0786889e-38
0.58401752 0.085364208 0.61000001 1.0786889e-38
0.58611423 0.085467488 0.61000001 1.0786889e-38
0.58927298 0.085623078 0.61000007 1.0786889e-38
0.59244561 0.085779369 0.61000007 1.0786889e-38
0.59563553 0.085936502 0.61000007 1.0786889e-38
0.59883958 0.08609432 0.61000007 1.0786889e-38
0.60098487 0.085332431 0.61000007 1.0786889e-38
0.60421711 0.085489497 0.61000013 1.0786889e-38
0.60746366 0.085647255 0.61000007 1.0786889e-38
0.61072809 0.084931836 0.61000019 1.0786889e-38
0.61400712 0.085088983 0.61000019 1.0786889e-38
0.61620283 0.085194215 0.61000025 1.0786889e-38
0.61951113 0.085352778 0.61000025 1.0786889e-38
0.62283409 0.085512035 0.61000037 1.0786889e-38
0.62505937 0.08561869 0.61000031 1.0786889e-38
0.62841231 0.085779391 0.61000037 1.0786889e-38
0.63178027 0.085940808 0.61000031 1.0786889e-38
0.63403571 0.086048901 0.61000037 1.0786889e-38
0.63743424 0.085319951 0.61000043 1.0786889e-38
0.64084816 0.085481308 0.61000037 1.0786889e-38
0.64313436 0.085589357 0.61000037 1.0786889e-38
0.64696294 0.085171185 0.61000043 1.0786889e-38
0.65004009 0.085015513 0.61000037 1.0786889e-38
0.6523577 0.085123494 0.61000055 1.0786889e-38
0.65468335 0.08523187 0.61000049 1.0786889e-38
0.65818775 0.085395157 0.61000061 1.0786889e-38
0.66170835 0.085559204 0.61000055 1.0786889e-38
0.6640662 0.08566907 0.61000061 1.0786889e-38
0.66761935 0.085834637 0.61000061 1.0786889e-38
0.67118901 0.086000964 0.61000067 1.0786889e-38
0.67357981 0.085196473 0.61000067 1.0786889e-38
0.67597896 0.085306667 0.61000061 1.0786889e-38
0.6795944 0.085472733 0.61000067 1.0786889e-38
0.68322676 0.085639566 0.61000073 1.0786889e-38
0.68565971 0.08575131 0.61000079 1.0786889e-38
0.68810123 0.084937885 0.61000073 1.0786889e-38
0.69055128 0.085048795 0.61000073 1.0786889e-38
0.69424367 0.085215926 0.61000079 1.0786889e-38
0.69795358 0.085383855 0.61000085 1.0786889e-38
0.70043862 0.085496351 0.61000079 1.0786889e-38
0.70293236 0.085609227 0.61000085 1.0786889e-38
0.70669085 0.085779354 0.61000091 1.0786889e-38
0.71046716 0.085950285 0.61000091 1.0786889e-38
0.71299678 0.085122652 0.61000097 1.0786889e-38
0.71553546 0.085235879 0.61000097 1.0786889e-38
0.71808338 0.085349515 0.61000091 1.0786889e-38
0.72064024 0.085463546 0.61000103 1.0786889e-38
0.72487736 0.085817337 0.61062169 1.0786889e-38
0.72836679 0.08580815 0.61000097 1.0786889e-38
0.73096091 0.084969759 0.61000109 1.0786889e-38
0.7335645 0.08508414 0.61000109 1.0786889e-38
0.73617762 0.085198939 0.61000109 1.0786889e-38
0.73880023 0.085314155 0.61000109 1.0786889e-38
0.74143231 0.085429795 0.61000115 1.0786889e-38
0.74539995 0.085604109 0.61000109 1.0786889e-38
0.74938691 0.085779265 0.61000121 1.0786889e-38
0.75205803 0.085896626 0.61000115 1.0786889e-38
0.75473881 0.086014397 0.61000121 1.0786889e-38
0.75742966 0.085160911 0.61000121 1.0786889e-38
0.76013029 0.085277759 0.61000133 1.0786889e-38
0.76284105 0.085395046 0.61000133 1.0786889e-38
0.76556194 0.085512772 0.61000133 1.0786889e-38
0.76829284 0.085630938 0.61000133 1.0786889e-38
0.77240968 0.085809067 0.61000133 1.0786889e-38
0.77654696 0.085003637 0.61000139 1.0786889e-38
0.77931905 0.085121736 0.61000133 1.0786889e-38
0.78210139 0.085240267 0.61000144 1.0786889e-38
0.78489423 0.085359246 0.6100015 1.0786889e-38
0.78769773 0.085478686 0.61000144 1.0786889e-38
0.79051167 0.085598566 0.6100015 1.0786889e-38
0.79333639 0.085718907 0.61000144 1.0786889e-38
0.79617172 0.085839689 0.6100015 1.0786889e-38
0.79901779 0.085960947 0.61000156 1.0786889e-38
0.80187482 0.085081369 0.61000156 1.0786889e-38
0.80474263 0.085201636 0.61000156 1.0786889e-38
0.80762148 0.085322358 0.61000156 1.0786889e-38
0.81051129 0.085443549 0.61000162 1.0786889e-38
0.81341231 0.085565202 0.61000156 1.0786889e-38
0.81632441 0.085687332 0.61000156 1.0786889e-38
0.81924766 0.085809916 0.61000162 1.0786889e-38
0.82218206 0.085932977 0.61000168 1.0786889e-38
0.82512802 0.08503975 0.61000168 1.0786889e-38
0.8280853 0.085161805 0.61000174 1.0786889e-38
0.83105415 0.085284323 0.61000174 1.0786889e-38
0.83403444 0.085407332 0.61000168 1.0786889e-38
0.8370263 0.085530803 0.61000186 1.0786889e-38
0.84002995 0.085654765 0.6100018 1.0786889e-38
0.84304529 0.08577922 0.6100018 1.0786889e-38
0.84607238 0.085904136 0.61000186 1.0786889e-38
0.8491115 0.084996834 0.61000186 1.0786889e-38
0.85216242 0.085120715 0.61000186 1.0786889e-38
0.85522544 0.085245088 0.61000192 1.0786889e-38
0.85830057 0.085369959 0.61000192 1.0786889e-38
0.86138779 0.085495308 0.61000198 1.0786889e-38
0.86448735 0.085621171 0.61000198 1.0786889e-38
0.86759925 0.085747533 0.61000198 1.0786889e-38
0.33162954 0.08807382 0.60999829 1.0786889e-38
0.33502108 0.088290542 0.60999835 1.0786889e-38
0.33775094 0.088465005 0.60999829 1.0786889e-38
0.3404952 0.088640362 0.60999835 1.0786889e-38
0.34325403 0.088816665 0.60999835 1.0786889e-38
0.34602743 0.088993892 0.60999846 1.0786889e-38
0.34934068 0.088330284 0.60999846 1.0786889e-38
0.35302585 0.088036083 0.60999846 1.0786889e-38
0.35585141 0.088212892 0.60999846 1.0786889e-38
0.35869211 0.088390648 0.60999846 1.0786889e-38
0.36154819 0.088569343 0.60999852 1.0786889e-38
0.3644197 0.088749021 0.60999852 1.0786889e-38
0.36730665 0.088929668 0.60999852 1.0786889e-38
0.37035483 0.088691734 0.60999858 1.0786889e-38
0.37298146 0.088282406 0.60999858 1.0786889e-38
0.37606218 0.088041827 0.60999864 1.0786889e-38
0.37901264 0.088222519 0.60999858 1.0786889e-38
0.38197929 0.088404194 0.60999864 1.0786889e-38
0.38496226 0.088586867 0.6099987 1.0786889e-38
0.38796169 0.088770561 0.6099987 1.0786889e-38
0.39097768 0.088955261 0.6099987 1.0786889e-38
0.39401045 0.089140989 0.6099987 1.0786889e-38
0.39706001 0.087864101 0.60999876 1.0786889e-38
0.4001267 0.088047817 0.60999882 1.0786889e-38
0.40321052 0.088232577 0.6099987 1.0786889e-38
0.40631154 0.08841835 0.60999882 1.0786889e-38
0.40943012 0.08860518 0.60999882 1.0786889e-38
0.41256624 0.088793062 0.60999882 1.0786889e-38
0.41572011 0.088982016 0.60999882 1.0786889e-38
0.41889191 0.089172035 0.60999882 1.0786889e-38
0.42208165 0.087866172 0.60999894 1.0786889e-38
0.42448539 0.088006973 0.60999894 1.0786889e-38
0.42690057 0.088148445 0.60999906 1.0786889e-38
0.43013617 0.08833798 0.60999894 1.0786889e-38
0.43339038 0.088528611 0.609999 1.0786889e-38
0.43666333 0.088720337 0.609999 1.0786889e-38
0.43995523 0.088913172 0.60999906 1.0786889e-38
0.44243604 0.089058489 0.60999906 1.0786889e-38
0.44465137 0.088933505 0.60999906 1.0786889e-38
0.44826877 0.087868333 0.60999912 1.0786889e-38
0.45162821 0.08806064 0.60999912 1.0786889e-38
0.45500728 0.088254094 0.60999918 1.0786889e-38
0.45755392 0.08839988 0.60999918 1.0786889e-38
0.46011311 0.08854638 0.60999918 1.0786889e-38
0.46354222 0.088742688 0.60999918 1.0786889e-38
0.46699151 0.088940151 0.60999918 1.0786889e-38
0.46959126 0.089088976 0.60999924 1.0786889e-38
0.47191301 0.088961087 0.60999924 1.0786889e-38
0.47570473 0.087870598 0.6099993 1.0786889e-38
0.47834343 0.088018149 0.6099993 1.0786889e-38
0.48099533 0.088166416 0.6099993 1.0786889e-38
0.48454887 0.08836513 0.6099993 1.0786889e-38
0.48722732 0.088514894 0.60999942 1.0786889e-38
0.48991925 0.088665418 0.60999942 1.0786889e-38
0.4935267 0.08886712 0.60999942 1.0786889e-38
0.49624592 0.089019164 0.60999942 1.0786889e-38
0.4986746 0.088888206 0.60999948 1.0786889e-38
0.50294757 0.088056438 0.60999942 1.0786889e-38
0.50540227 0.087923259 0.60999954 1.0786889e-38
0.50817728 0.088074736 0.60999942 1.0786889e-38
0.51189619 0.088277727 0.60999954 1.0786889e-38
0.51469964 0.088430747 0.60999954 1.0786889e-38
0.51751757 0.088584557 0.6099996 1.0786889e-38
0.52034712 0.088739008 0.60999954 1.0786889e-38
0.52319121 0.088894248 0.60999966 1.0786889e-38
0.52700317 0.08910232 0.6099996 1.0786889e-38
0.52987689 0.088438943 0.60999966 1.0786889e-38
0.53308725 0.088063516 0.60999966 1.0786889e-38
0.53566635 0.087927021 0.60999966 1.0786889e-38
0.53858238 0.088082299 0.60999966 1.0786889e-38
0.54151046 0.088238239 0.60999978 1.0786889e-38
0.54445422 0.088395 0.60999972 1.0786889e-38
0.54741019 0.088552408 0.60999978 1.0786889e-38
0.55038178 0.088710658 0.60999978 1.0786889e-38
0.55336607 0.088869572 0.60999972 1.0786889e-38
0.55636603 0.089029334 0.60999984 1.0786889e-38
0.55937886 0.088349901 0.60999984 1.0786889e-38
0.56240773 0.08850918 0.6099999 1.0786889e-38
0.5654496 0.088669144 0.6099999 1.0786889e-38
0.56850779 0.087984011 0.6099999 1.0786889e-38
0.5715791 0.088143483 0.6099999 1.0786889e-38
0.57466686 0.088303804 0.60999995 1.0786889e-38
0.57776803 0.088464819 0.60999995 1.0786889e-38
0.58088601 0.088626713 0.60999995 1.0786889e-38
0.58401752 0.088789299 0.61000001 1.0786889e-38
0.58611423 0.088898167 0.61000001 1.0786889e-38
0.58927298 0.089062169 0.61000001 1.0786889e-38
0.59244561 0.088365018 0.61000007 1.0786889e-38
0.59563553 0.088528514 0.61000007 1.0786889e-38
0.59883958 0.08869274 0.61000007 1.0786889e-38
0.60098487 0.087935135 0.61000007 1.0786889e-38
0.60421711 0.088098653 0.61000013 1.0786889e-38
0.60746366 0.088262901 0.61000007 1.0786889e-38
0.61072809 0.088428043 0.61000019 1.0786889e-38
0.61400712 0.08859393 0.61000019 1.0786889e-38
0.61620283 0.088705003 0.61000025 1.0786889e-38
0.61951113 0.088872373 0.61000025 1.0786889e-38
0.62283409 0.089040481 0.61000037 1.0786889e-38
0.62505937 0.088269465 0.61000031 1.0786889e-38
0.62841231 0.088436857 0.61000037 1.0786889e-38
0.63178027 0.088605009 0.61000031 1.0786889e-38
0.63403571 0.08871761 0.61000037 1.0786889e-38
0.63743424 0.08799544 0.61000043 1.0786889e-38
0.64084816 0.088163614 0.61000037 1.0786889e-38
0.64313436 0.08827623 0.61000037 1.0786889e-38
0.64657933 0.088445917 0.61000043 1.0786889e-38
0.65004009 0.088616401 0.61000037 1.0786889e-38
0.6523577 0.088730559 0.61000055 1.0786889e-38
0.65468335 0.088845119 0.61000049 1.0786889e-38
0.65818775 0.089017741 0.61000061 1.0786889e-38
0.66170835 0.088283174 0.61000055 1.0786889e-38
0.6640662 0.088397749 0.61000061 1.0786889e-38
0.66761935 0.088570401 0.61000061 1.0786889e-38
0.67118901 0.088743865 0.61000067 1.0786889e-38
0.67357981 0.08794415 0.61000067 1.0786889e-38
0.67597896 0.088059135 0.61000061 1.0786889e-38
0.6795944 0.088232413 0.61000067 1.0786889e-38
0.68322676 0.088406503 0.61000073 1.0786889e-38
0.68565971 0.088523105 0.61000079 1.0786889e-38
0.68810123 0.088640124 0.61000073 1.0786889e-38
0.69055128 0.088757545 0.61000073 1.0786889e-38
0.69424373 0.088934511 0.61000079 1.0786889e-38
0.69795358 0.088180207 0.61000085 1.0786889e-38
0.70043862 0.088297658 0.61000079 1.0786889e-38
0.70293236 0.088415511 0.61000085 1.0786889e-38
0.70669079 0.08859314 0.61000091 1.0786889e-38
0.71046716 0.088771619 0.61000091 1.0786889e-38
0.71299678 0.087949038 0.61000097 1.0786889e-38
0.71553546 0.088067338 0.61000097 1.0786889e-38
0.71808338 0.088186063 0.61000091 1.0786889e-38
0.7206403 0.088305205 0.61000097 1.0786889e-38
0.72449422 0.088484779 0.61000097 1.0786889e-38
0.72836679 0.088665232 0.61000097 1.0786889e-38
0.73096091 0.08878611 0.61000109 1.0786889e-38
0.7335645 0.088907421 0.61000109 1.0786889e-38
0.73617762 0.089029178 0.61000109 1.0786889e-38
0.73880023 0.088192075 0.61000109 1.0786889e-38
0.74143231 0.088312969 0.61000115 1.0786889e-38
0.74539995 0.08849521 0.61000109 1.0786889e-38
0.74938691 0.08867833 0.61000121 1.0786889e-38
0.75205803 0.088801011 0.61000115 1.0786889e-38
0.75473881 0.088924147 0.61000121 1.0786889e-38
0.75742966 0.088076025 0.61000121 1.0786889e-38
0.76013029 0.088198274 0.61000133 1.0786889e-38
0.76284105 0.088320971 0.61000133 1.0786889e-38
0.76556194 0.088444129 0.61000133 1.0786889e-38
0.76829284 0.088567749 0.61000133 1.0786889e-38
0.77240968 0.088754095 0.61000133 1.0786889e-38
0.77654696 0.088941365 0.61000139 1.0786889e-38
0.77931905 0.08808057 0.61000133 1.0786889e-38
0.78210139 0.08820466 0.61000144 1.0786889e-38
0.78489423 0.088329218 0.6100015 1.0786889e-38
0.78769773 0.088454254 0.61000144 1.0786889e-38
0.79051167 0.088579752 0.6100015 1.0786889e-38
0.79333639 0.088705733 0.61000144 1.0786889e-38
0.79617172 0.088832185 0.6100015 1.0786889e-38
0.79901779 0.088959113 0.61000156 1.0786889e-38
0.80187482 0.088085249 0.61000156 1.0786889e-38
0.80474263 0.088211238 0.61000156 1.0786889e-38
0.80762148 0.088337705 0.61000156 1.0786889e-38
0.81051129 0.08846467 0.61000162 1.0786889e-38
0.81341231 0.08859212 0.61000156 1.0786889e-38
0.81632441 0.088720061 0.61000156 1.0786889e-38
0.81924766 0.088848487 0.61000162 1.0786889e-38
0.82218206 0.088977411 0.61000168 1.0786889e-38
0.82512802 0.088090062 0.61000168 1.0786889e-38
0.8280853 0.088218018 0.61000174 1.0786889e-38
0.83105415 0.088346474 0.61000174 1.0786889e-38
0.83403444 0.088475429 0.61000168 1.0786889e-38
0.8370263 0.088604875 0.61000186 1.0786889e-38
0.84002995 0.088734835 0.6100018 1.0786889e-38
0.84304529 0.088865303 0.6100018 1.0786889e-38
0.84607238 0.088996276 0.61000186 1.0786889e-38
0.84943336 0.088562332 0.61024183 1.0786889e-38
0.85216242 0.088225015 0.61000186 1.0786889e-38
0.85522544 0.088355511 0.61000192 1.0786889e-38
0.85830057 0.088486522 0.61000192 1.0786889e-38
0.86138779 0.088618033 0.61000198 1.0786889e-38
0.86448735 0.088750087 0.61000198 1.0786889e-38
0.86759925 0.088882655 0.61000198 1.0786889e-38
0.33162951 0.091515161 0.60999829 1.0786889e-38
0.33502111 0.091052659 0.60999829 1.0786889e-38
0.33775091 0.091234371 0.60999829 1.0786889e-38
0.3404952 0.091417044 0.60999835 1.0786889e-38
0.34325403 0.091600694 0.60999835 1.0786889e-38
0.34602743 0.091785312 0.60999846 1.0786889e-38
0.34971577 0.091730349 0.6099984 1.0786889e-38
0.35288495 0.091258168 0.60999846 1.0786889e-38
0.35585138 0.091030456 0.60999846 1.0786889e-38
0.35869211 0.091215774 0.60999846 1.0786889e-38
0.36154819 0.091402084 0.60999852 1.0786889e-38
0.3644197 0.091589406 0.60999852 1.0786889e-38
0.36730665 0.091777742 0.60999852 1.0786889e-38
0.37020934 0.091967098 0.60999846 1.0786889e-38
0.37327415 0.091737196 0.60999858 1.0786889e-38
0.37606218 0.090913214 0.60999864 1.0786889e-38
0.37901264 0.091101751 0.60999858 1.0786889e-38
0.38197929 0.091291331 0.60999864 1.0786889e-38
0.38496226 0.091481954 0.6099987 1.0786889e-38
0.38796169 0.091673627 0.6099987 1.0786889e-38
0.39097771 0.091866359 0.6099987 1.0786889e-38
0.39401048 0.092060164 0.6099987 1.0786889e-38
0.39690709 0.09122061 0.60999876 1.0786889e-38
0.4001267 0.090983286 0.60999876 1.0786889e-38
0.40321052 0.091176242 0.6099987 1.0786889e-38
0.40631151 0.09137027 0.60999882 1.0786889e-38
0.40943009 0.091565408 0.60999882 1.0786889e-38
0.41256624 0.091761649 0.60999882 1.0786889e-38
0.41572011 0.091958985 0.60999882 1.0786889e-38
0.41889191 0.092157453 0.60999882 1.0786889e-38
0.42208165 0.090860084 0.60999894 1.0786889e-38
0.42448539 0.091007292 0.60999894 1.0786889e-38
0.42690057 0.091155194 0.60999906 1.0786889e-38
0.43013617 0.091353342 0.609999 1.0786889e-38
0.43339038 0.091552638 0.609999 1.0786889e-38
0.43666333 0.09175308 0.609999 1.0786889e-38
0.43995523 0.091954678 0.609999 1.0786889e-38
0.44243604 0.092106596 0.60999906 1.0786889e-38
0.44492888 0.091495022 0.60999906 1.0786889e-38
0.44826877 0.090931967 0.60999912 1.0786889e-38
0.45162821 0.091133237 0.60999912 1.0786889e-38
0.45500726 0.091335677 0.60999918 1.0786889e-38
0.45755392 0.091488242 0.60999918 1.0786889e-38
0.46011314 0.09164156 0.60999918 1.0786889e-38
0.46354219 0.091846995 0.60999918 1.0786889e-38
0.46699151 0.092053644 0.60999918 1.0786889e-38
0.46959126 0.092209391 0.60999924 1.0786889e-38
0.47249475 0.091079682 0.60999924 1.0786889e-38
0.47570473 0.0910073 0.6099993 1.0786889e-38
0.47834343 0.091161869 0.6099993 1.0786889e-38
0.48099536 0.091317207 0.6099993 1.0786889e-38
0.48454884 0.091525368 0.6099993 1.0786889e-38
0.48722732 0.09168227 0.60999942 1.0786889e-38
0.48991925 0.091839954 0.60999942 1.0786889e-38
0.49352673 0.092051268 0.60999942 1.0786889e-38
0.49624592 0.091412708 0.60999942 1.0786889e-38
0.49928316 0.091055073 0.60999948 1.0786889e-38
0.50264144 0.090980984 0.60999942 1.0786889e-38
0.50540227 0.091139019 0.60999954 1.0786889e-38
0.50817728 0.091297895 0.60999942 1.0786889e-38
0.51189619 0.091510788 0.60999954 1.0786889e-38
0.51469964 0.091671273 0.60999954 1.0786889e-38
0.51751757 0.091832586 0.60999954 1.0786889e-38
0.52034712 0.091994569 0.60999954 1.0786889e-38
0.52287459 0.091867119 0.60999966 1.0786889e-38
0.52700317 0.091557279 0.6099996 1.0786889e-38
0.52987689 0.090899646 0.60999966 1.0786889e-38
0.53276563 0.091061175 0.60999966 1.0786889e-38
0.53566635 0.091223374 0.60999966 1.0786889e-38
0.53858238 0.091386423 0.60999966 1.0786889e-38
0.54151046 0.091550142 0.60999978 1.0786889e-38
0.54445422 0.091714747 0.60999972 1.0786889e-38
0.54741025 0.091880038 0.60999966 1.0786889e-38
0.55038178 0.092046186 0.60999978 1.0786889e-38
0.55336607 0.091377184 0.60999972 1.0786889e-38
0.55636603 0.091542929 0.60999984 1.0786889e-38
0.55937886 0.090869516 0.60999984 1.0786889e-38
0.56240773 0.091034845 0.6099999 1.0786889e-38
0.5654496 0.091200888 0.6099999 1.0786889e-38
0.56850779 0.091367811 0.6099999 1.0786889e-38
0.5715791 0.091535456 0.6099999 1.0786889e-38
0.57466686 0.091704004 0.60999995 1.0786889e-38
0.57776803 0.091873273 0.60999995 1.0786889e-38
0.58088601 0.092043459 0.60999995 1.0786889e-38
0.58401752 0.091358118 0.61000001 1.0786889e-38
0.58611423 0.091471173 0.61000001 1.0786889e-38
0.58927298 0.091641486 0.61000001 1.0786889e-38
0.59244561 0.090950668 0.61000007 1.0786889e-38
0.59563553 0.091120534 0.61000007 1.0786889e-38
0.59883958 0.091291159 0.61000007 1.0786889e-38
0.60098487 0.091405407 0.61000007 1.0786889e-38
0.60421711 0.09157753 0.61000013 1.0786889e-38
0.60746366 0.091750421 0.61000007 1.0786889e-38
0.61072809 0.091924265 0.61000019 1.0786889e-38
0.61400712 0.092098877 0.61000019 1.0786889e-38
0.61620283 0.091338098 0.61000025 1.0786889e-38
0.61951113 0.091512069 0.61000025 1.0786889e-38
0.62283409 0.091686815 0.61000037 1.0786889e-38
0.62505937 0.090920247 0.61000031 1.0786889e-38
0.62841231 0.091094345 0.61000037 1.0786889e-38
0.63178027 0.09126921 0.61000031 1.0786889e-38
0.63403571 0.091386318 0.61000037 1.0786889e-38
0.63743424 0.091562763 0.61000043 1.0786889e-38
0.64084816 0.091740027 0.61000037 1.0786889e-38
0.64313436 0.09185873 0.61000037 1.0786889e-38
0.64657933 0.092037596 0.61000049 1.0786889e-38
0.65004009 0.091317065 0.61000037 1.0786889e-38
0.6523577 0.09143585 0.61000055 1.0786889e-38
0.65468335 0.091555052 0.61000049 1.0786889e-38
0.65818775 0.091734678 0.61000061 1.0786889e-38
0.66170835 0.091007143 0.61000055 1.0786889e-38
0.6640662 0.091126427 0.61000061 1.0786889e-38
0.66761935 0.09130618 0.61000061 1.0786889e-38
0.67118901 0.091486767 0.61000067 1.0786889e-38
0.67357981 0.091607712 0.61000067 1.0786889e-38
0.67597896 0.09172909 0.61000061 1.0786889e-38
0.6795944 0.091911994 0.61000067 1.0786889e-38
0.68322676 0.091173448 0.61000073 1.0786889e-38
0.68565971 0.0912949 0.61000079 1.0786889e-38
0.68810123 0.091416791 0.61000073 1.0786889e-38
0.69055128 0.091539115 0.61000073 1.0786889e-38
0.69424373 0.091723457 0.61000079 1.0786889e-38
0.69795358 0.090976551 0.61000085 1.0786889e-38
0.70043862 0.091098964 0.61000079 1.0786889e-38
0.70293236 0.091221802 0.61000085 1.0786889e-38
0.70669079 0.091406941 0.61000091 1.0786889e-38
0.71046716 0.091592953 0.61000091 1.0786889e-38
0.71299678 0.091717556 0.61000097 1.0786889e-38
0.71553546 0.091842607 0.61000097 1.0786889e-38
0.71808338 0.091968119 0.61000091 1.0786889e-38
0.7206403 0.091146857 0.61000097 1.0786889e-38
0.72449422 0.091334127 0.61000097 1.0786889e-38
0.72836679 0.091522314 0.61000097 1.0786889e-38
0.73096091 0.091648363 0.61000109 1.0786889e-38
0.7335645 0.091774881 0.61000109 1.0786889e-38
0.73617762 0.091901861 0.61000109 1.0786889e-38
0.73880023 0.091069996 0.61000109 1.0786889e-38
0.74143231 0.091196142 0.61000115 1.0786889e-38
0.74539995 0.091386303 0.61000109 1.0786889e-38
0.74938691 0.091577381 0.61000121 1.0786889e-38
0.75205803 0.091705412 0.61000115 1.0786889e-38
0.75473881 0.091833889 0.61000121 1.0786889e-38
0.75742966 0.091962859 0.61000121 1.0786889e-38
0.76013029 0.091118783 0.61000133 1.0786889e-38
0.76284105 0.091246903 0.61000133 1.0786889e-38
0.76556194 0.091375493 0.61000133 1.0786889e-38
0.76829284 0.091504559 0.61000133 1.0786889e-38
0.77240968 0.091699131 0.61000133 1.0786889e-38
0.77654696 0.091894664 0.61000139 1.0786889e-38
0.77931905 0.091039404 0.61000133 1.0786889e-38
0.78210139 0.091169044 0.61000144 1.0786889e-38
0.78489423 0.091299184 0.6100015 1.0786889e-38
0.78769773 0.091429815 0.61000144 1.0786889e-38
0.79051167 0.09156093 0.6100015 1.0786889e-38
0.79333639 0.091692559 0.61000144 1.0786889e-38
0.79617172 0.091824666 0.6100015 1.0786889e-38
0.79901779 0.091957286 0.61000156 1.0786889e-38
0.80187482 0.091089122 0.61000156 1.0786889e-38
0.80474263 0.091220841 0.61000156 1.0786889e-38
0.80762148 0.091353059 0.61000156 1.0786889e-38
0.81051129 0.091485791 0.61000162 1.0786889e-38
0.81341231 0.091619037 0.61000156 1.0786889e-38
0.81632441 0.09175279 0.61000156 1.0786889e-38
0.81924766 0.091887057 0.61000162 1.0786889e-38
0.82218206 0.092021838 0.61000168 1.0786889e-38
0.82512802 0.091140375 0.61000168 1.0786889e-38
0.8280853 0.091274232 0.61000174 1.0786889e-38
0.83105415 0.091408618 0.61000174 1.0786889e-38
0.83403444 0.091543525 0.61000168 1.0786889e-38
0.8370263 0.091678947 0.61000186 1.0786889e-38
0.84002995 0.091814905 0.6100018 1.0786889e-38
0.84304529 0.0919514 0.6100018 1.0786889e-38
0.84607238 0.091057703 0.61000186 1.0786889e-38
0.8491115 0.091193244 0.61000186 1.0786889e-38
0.85216242 0.091329314 0.61000186 1.0786889e-38
0.85522544 0.09146592 0.61000192 1.0786889e-38
0.85830057 0.09160307 0.61000192 1.0786889e-38
0.86138779 0.091740757 0.61000198 1.0786889e-38
0.86448735 0.091878995 0.61000198 1.0786889e-38
0.86759925 0.092017785 0.61000198 1.0786889e-38
0.33162954 0.09495651 0.60999829 1.0786889e-38
0.33502111 0.094505288 0.60999829 1.0786889e-38
0.33775091 0.094003752 0.60999829 1.0786889e-38
0.3404952 0.094193727 0.60999835 1.0786889e-38
0.34325403 0.094384715 0.60999835 1.0786889e-38
0.34602743 0.094576709 0.60999846 1.0786889e-38
0.34951577 0.094818212 0.60999846 1.0786889e-38
0.35316676 0.094649173 0.60999846 1.0786889e-38
0.35570973 0.094260767 0.60999846 1.0786889e-38
0.35869211 0.094040915 0.60999846 1.0786889e-38
0.36154819 0.094234824 0.60999852 1.0786889e-38
0.3644197 0.094429791 0.60999852 1.0786889e-38
0.36730665 0.094625808 0.60999852 1.0786889e-38
0.37020934 0.094822899 0.60999846 1.0786889e-38
0.37312782 0.095021054 0.60999858 1.0786889e-38
0.37606218 0.094502442 0.60999864 1.0786889e-38
0.37901264 0.093980998 0.60999858 1.0786889e-38
0.38197929 0.094178468 0.60999864 1.0786889e-38
0.38496226 0.094377026 0.6099987 1.0786889e-38
0.38796169 0.094576694 0.6099987 1.0786889e-38
0.39097768 0.094777457 0.6099987 1.0786889e-38
0.39401048 0.094979338 0.6099987 1.0786889e-38
0.39721292 0.094753109 0.60999876 1.0786889e-38
0.4001267 0.093918733 0.60999876 1.0786889e-38
0.40321052 0.094119914 0.6099987 1.0786889e-38
0.40631154 0.094322205 0.60999882 1.0786889e-38
0.40943015 0.09452565 0.60999876 1.0786889e-38
0.41256624 0.094730228 0.60999882 1.0786889e-38
0.41572011 0.094935969 0.60999882 1.0786889e-38
0.41889191 0.095142886 0.60999882 1.0786889e-38
0.42208165 0.093854003 0.60999894 1.0786889e-38
0.42448539 0.094007611 0.60999894 1.0786889e-38
0.42690054 0.094161943 0.60999906 1.0786889e-38
0.43013617 0.094368711 0.60999894 1.0786889e-38
0.43339038 0.094576672 0.609999 1.0786889e-38
0.43666333 0.094785824 0.609999 1.0786889e-38
0.43995523 0.094996177 0.609999 1.0786889e-38
0.44243604 0.095154718 0.60999906 1.0786889e-38
0.4452064 0.094058387 0.60999906 1.0786889e-38
0.44826877 0.093995616 0.60999912 1.0786889e-38
0.45162821 0.094205827 0.60999912 1.0786889e-38
0.45500728 0.094417259 0.60999918 1.0786889e-38
0.45755392 0.094576612 0.60999918 1.0786889e-38
0.46011314 0.094736747 0.60999918 1.0786889e-38
0.46354222 0.094951302 0.60999918 1.0786889e-38
0.46670321 0.094889455 0.60999918 1.0786889e-38
0.46959126 0.094549701 0.60999924 1.0786889e-38
0.47220391 0.093929596 0.60999924 1.0786889e-38
0.47570473 0.094143987 0.6099993 1.0786889e-38
0.47834343 0.09430559 0.6099993 1.0786889e-38
0.48099536 0.09446799 0.6099993 1.0786889e-38
0.48454887 0.094685614 0.6099993 1.0786889e-38
0.48722732 0.094849646 0.60999942 1.0786889e-38
0.48991928 0.095014498 0.60999942 1.0786889e-38
0.49322519 0.094951399 0.60999942 1.0786889e-38
0.49624592 0.093806252 0.60999942 1.0786889e-38
0.49897885 0.093969971 0.60999948 1.0786889e-38
0.50264144 0.094189405 0.60999942 1.0786889e-38
0.50540227 0.094354793 0.60999954 1.0786889e-38
0.50817728 0.094521046 0.60999942 1.0786889e-38
0.51189619 0.09474384 0.60999948 1.0786889e-38
0.51469964 0.094911799 0.60999954 1.0786889e-38
0.51751757 0.095080614 0.60999954 1.0786889e-38
0.52034712 0.094436243 0.60999954 1.0786889e-38
0.52350789 0.094079219 0.60999966 1.0786889e-38
0.52700317 0.094012253 0.6099996 1.0786889e-38
0.52987689 0.094180584 0.60999966 1.0786889e-38
0.53276563 0.094349802 0.60999966 1.0786889e-38
0.53566635 0.094519719 0.60999966 1.0786889e-38
0.53858238 0.094690531 0.60999966 1.0786889e-38
0.54151046 0.094862059 0.60999978 1.0786889e-38
0.54445422 0.095034488 0.60999972 1.0786889e-38
0.54741025 0.094375752 0.60999966 1.0786889e-38
0.55038178 0.094547838 0.60999978 1.0786889e-38
0.55336607 0.093884796 0.60999972 1.0786889e-38
0.55636603 0.094056532 0.60999984 1.0786889e-38
0.55937886 0.094229013 0.60999984 1.0786889e-38
0.56240773 0.094402403 0.6099999 1.0786889e-38
0.5654496 0.094576538 0.6099999 1.0786889e-38
0.56850779 0.094751604 0.6099999 1.0786889e-38
0.5715791 0.09492743 0.6099999 1.0786889e-38
0.57432306 0.094800927 0.60999995 1.0786889e-38
0.57776803 0.094429612 0.60999995 1.0786889e-38
0.58088601 0.094606027 0.60999995 1.0786889e-38
0.58401752 0.093926936 0.61000001 1.0786889e-38
0.58611423 0.094044179 0.61000001 1.0786889e-38
0.58927298 0.094220802 0.61000007 1.0786889e-38
0.59244561 0.094398201 0.61000007 1.0786889e-38
0.59563553 0.09457656 0.61000007 1.0786889e-38
0.59883958 0.094755724 0.61000007 1.0786889e-38
0.60098487 0.094875678 0.61000007 1.0786889e-38
0.60421711 0.0950564 0.61000013 1.0786889e-38
0.60746366 0.094366059 0.61000007 1.0786889e-38
0.61072809 0.094546422 0.61000019 1.0786889e-38
0.61400712 0.094727583 0.61000019 1.0786889e-38
0.61620283 0.093971193 0.61000025 1.0786889e-38
0.61951107 0.094151773 0.61000019 1.0786889e-38
0.62283409 0.094333157 0.61000037 1.0786889e-38
0.62505937 0.094454616 0.61000031 1.0786889e-38
0.62841231 0.09463764 0.61000037 1.0786889e-38
0.63178027 0.094821483 0.61000031 1.0786889e-38
0.63403571 0.094944589 0.61000037 1.0786889e-38
0.63705575 0.094811894 0.61000043 1.0786889e-38
0.64084816 0.094422333 0.61000037 1.0786889e-38
0.64313436 0.094545603 0.61000037 1.0786889e-38
0.64657933 0.094731346 0.61000049 1.0786889e-38
0.65004009 0.094017729 0.61000037 1.0786889e-38
0.6523577 0.094141141 0.61000055 1.0786889e-38
0.65468335 0.094264984 0.61000049 1.0786889e-38
0.65818775 0.094451606 0.61000061 1.0786889e-38
0.66170835 0.094639093 0.61000055 1.0786889e-38
0.6640662 0.094764657 0.61000061 1.0786889e-38
0.66761935 0.094953865 0.61000061 1.0786889e-38
0.67118901 0.094229661 0.61000067 1.0786889e-38
0.67357981 0.094355382 0.61000067 1.0786889e-38
0.67597896 0.09448155 0.61000061 1.0786889e-38
0.6795944 0.094671682 0.61000067 1.0786889e-38
0.68322676 0.093940377 0.61000073 1.0786889e-38
0.68565971 0.094066694 0.61000079 1.0786889e-38
0.68810123 0.094193466 0.61000073 1.0786889e-38
0.69055128 0.094320677 0.61000073 1.0786889e-38
0.69424373 0.094512396 0.61000079 1.0786889e-38
0.69795358 0.094705015 0.61000085 1.0786889e-38
0.70043862 0.094834045 0.61000079 1.0786889e-38
0.70293236 0.094963521 0.61000085 1.0786889e-38
0.70669079 0.094220735 0.61000091 1.0786889e-38
0.71046716 0.094414294 0.61000091 1.0786889e-38
0.71299678 0.094543949 0.61000097 1.0786889e-38
0.71553546 0.094674066 0.61000097 1.0786889e-38
0.71808338 0.094804667 0.61000091 1.0786889e-38
0.7206403 0.093988508 0.61000097 1.0786889e-38
0.72449422 0.094183475 0.61000103 1.0786889e-38
0.72836679 0.094379395 0.61000097 1.0786889e-38
0.73096091 0.09451063 0.61000109 1.0786889e-38
0.7335645 0.094642341 0.61000109 1.0786889e-38
0.73617762 0.094774544 0.61000109 1.0786889e-38
0.73880023 0.094907217 0.61000109 1.0786889e-38
0.74143231 0.094079316 0.61000115 1.0786889e-38
0.74539995 0.094277397 0.61000109 1.0786889e-38
0.74938691 0.094476447 0.61000121 1.0786889e-38
0.75205803 0.094609797 0.61000115 1.0786889e-38
0.75473881 0.094743639 0.61000121 1.0786889e-38
0.75742966 0.094877973 0.61000121 1.0786889e-38
0.76013029 0.094039299 0.61000133 1.0786889e-38
0.76284105 0.09417282 0.61000133 1.0786889e-38
0.76556194 0.094306856 0.61000133 1.0786889e-38
0.76829284 0.094441369 0.61000133 1.0786889e-38
0.77240968 0.094644159 0.61000133 1.0786889e-38
0.77654696 0.094847962 0.61000139 1.0786889e-38
0.77931905 0.094984517 0.61000133 1.0786889e-38
0.78210139 0.094133437 0.61000144 1.0786889e-38
0.78489423 0.094269149 0.6100015 1.0786889e-38
0.78769773 0.094405383 0.61000144 1.0786889e-38
0.79051167 0.094542116 0.6100015 1.0786889e-38
0.79333639 0.094679385 0.61000144 1.0786889e-38
0.79617172 0.094817154 0.6100015 1.0786889e-38
0.79901779 0.094955459 0.61000156 1.0786889e-38
0.80187482 0.094092995 0.61000156 1.0786889e-38
0.80474263 0.094230443 0.61000156 1.0786889e-38
0.80762148 0.094368413 0.61000156 1.0786889e-38
0.81051129 0.094506912 0.61000162 1.0786889e-38
0.81341231 0.094645955 0.61000156 1.0786889e-38
0.81632441 0.094785526 0.61000156 1.0786889e-38
0.81924766 0.094925627 0.61000162 1.0786889e-38
0.82218206 0.09405145 0.61000168 1.0786889e-38
0.82512802 0.094190687 0.61000168 1.0786889e-38
0.8280853 0.094330452 0.61000174 1.0786889e-38
0.83105415 0.094470762 0.61000174 1.0786889e-38
0.83403444 0.094611622 0.61000168 1.0786889e-38
0.8370263 0.09475302 0.61000186 1.0786889e-38
0.84002995 0.094894975 0.6100018 1.0786889e-38
0.84304529 0.09503749 0.6100018 1.0786889e-38
0.84607238 0.094149835 0.61000186 1.0786889e-38
0.8491115 0.094291449 0.61000186 1.0786889e-38
0.85216242 0.094433613 0.61000186 1.0786889e-38
0.85522544 0.094576336 0.61000192 1.0786889e-38
0.85830057 0.094719633 0.61000192 1.0786889e-38
0.86138779 0.094863474 0.61000198 1.0786889e-38
0.86448735 0.093964934 0.61000198 1.0786889e-38
0.86759925 0.094107866 0.61000198 1.0786889e-38
0.33162954 0.097709596 0.60999829 1.0786889e-38
0.33502111 0.097957924 0.60999835 1.0786889e-38
0.33775094 0.097465463 0.60999829 1.0786889e-38
0.3404952 0.096970409 0.60999835 1.0786889e-38
0.34325403 0.097168744 0.60999835 1.0786889e-38
0.34602743 0.097368129 0.60999846 1.0786889e-38
0.34951577 0.097618908 0.60999846 1.0786889e-38
0.35302585 0.097871259 0.60999846 1.0786889e-38
0.35599303 0.097661652 0.6099984 1.0786889e-38
0.35854968 0.097279474 0.60999846 1.0786889e-38
0.36154819 0.097067557 0.60999852 1.0786889e-38
0.3644197 0.097270176 0.60999852 1.0786889e-38
0.36730665 0.09747389 0.60999852 1.0786889e-38
0.37020934 0.097678691 0.60999846 1.0786889e-38
0.37312779 0.097884618 0.60999858 1.0786889e-38
0.37606218 0.098091662 0.60999864 1.0786889e-38
0.37886471 0.09728159 0.60999858 1.0786889e-38
0.38197929 0.097065605 0.60999864 1.0786889e-38
0.38496226 0.097272113 0.6099987 1.0786889e-38
0.38796169 0.097479761 0.6099987 1.0786889e-38
0.39097771 0.097688548 0.6099987 1.0786889e-38
0.39401045 0.097898513 0.6099987 1.0786889e-38
0.39706001 0.098109633 0.60999876 1.0786889e-38
0.4001267 0.096854195 0.60999876 1.0786889e-38
0.40321052 0.097063586 0.6099987 1.0786889e-38
0.40631154 0.097274125 0.60999882 1.0786889e-38
0.40943015 0.097485878 0.60999876 1.0786889e-38
0.41256624 0.097698808 0.60999882 1.0786889e-38
0.41572011 0.097912945 0.60999882 1.0786889e-38
0.41889191 0.098128304 0.60999882 1.0786889e-38
0.42208165 0.096847922 0.60999894 1.0786889e-38
0.42448539 0.09700793 0.60999894 1.0786889e-38
0.42690054 0.097168684 0.60999906 1.0786889e-38
0.4301362 0.09738408 0.60999888 1.0786889e-38
0.43339038 0.097600691 0.609999 1.0786889e-38
0.43666336 0.097818561 0.609999 1.0786889e-38
0.43995523 0.09803769 0.60999906 1.0786889e-38
0.44243604 0.098202825 0.60999906 1.0786889e-38
0.44492888 0.096841387 0.60999906 1.0786889e-38
0.44826877 0.097059257 0.60999912 1.0786889e-38
0.45162821 0.097278416 0.60999906 1.0786889e-38
0.45500728 0.097498849 0.60999918 1.0786889e-38
0.45755392 0.097664982 0.60999918 1.0786889e-38
0.46011314 0.097831927 0.60999918 1.0786889e-38
0.46354222 0.098055623 0.60999918 1.0786889e-38
0.46727982 0.097001575 0.60999918 1.0786889e-38
0.46959126 0.096890017 0.60999924 1.0786889e-38
0.47220391 0.097056977 0.60999924 1.0786889e-38
0.47570473 0.097280689 0.6099993 1.0786889e-38
0.47834343 0.097449318 0.6099993 1.0786889e-38
0.48099536 0.097618774 0.6099993 1.0786889e-38
0.48454884 0.09784586 0.60999924 1.0786889e-38
0.48722732 0.098017022 0.60999942 1.0786889e-38
0.48961958 0.097905137 0.60999942 1.0786889e-38
0.49382827 0.097111501 0.60999942 1.0786889e-38
0.49624592 0.096997634 0.60999942 1.0786889e-38
0.49897891 0.097168647 0.60999942 1.0786889e-38
0.50264144 0.097397819 0.60999942 1.0786889e-38
0.50540227 0.097570561 0.60999954 1.0786889e-38
0.50817728 0.097744204 0.60999942 1.0786889e-38
0.51189619 0.097976908 0.60999948 1.0786889e-38
0.51469964 0.098152325 0.60999954 1.0786889e-38
0.51751757 0.097516634 0.60999954 1.0786889e-38
0.52034712 0.096877918 0.60999954 1.0786889e-38
0.52319121 0.097052082 0.60999966 1.0786889e-38
0.52700317 0.097285539 0.6099996 1.0786889e-38
0.52987689 0.097461522 0.60999966 1.0786889e-38
0.53276563 0.097638428 0.60999966 1.0786889e-38
0.53566635 0.09781608 0.60999966 1.0786889e-38
0.53858238 0.097994655 0.60999966 1.0786889e-38
0.54151046 0.097345993 0.60999978 1.0786889e-38
0.54445422 0.0975243 0.60999972 1.0786889e-38
0.54741025 0.096871465 0.60999966 1.0786889e-38
0.55038178 0.097049482 0.60999978 1.0786889e-38
0.55336607 0.097228274 0.60999972 1.0786889e-38
0.55636603 0.097407997 0.60999984 1.0786889e-38
0.55937886 0.097588494 0.60999984 1.0786889e-38
0.56240773 0.097769953 0.6099999 1.0786889e-38
0.5654496 0.097952195 0.6099999 1.0786889e-38
0.56816727 0.097832799 0.6099999 1.0786889e-38
0.5715791 0.097471409 0.6099999 1.0786889e-38
0.57501072 0.097107552 0.60999995 1.0786889e-38
0.57776803 0.096985951 0.60999995 1.0786889e-38
0.58088601 0.097168595 0.60999995 1.0786889e-38
0.58401752 0.097352035 0.61000001 1.0786889e-38
0.58633739 0.09705881 0.61003745 1.0786889e-38
0.58927298 0.097659886 0.61000007 1.0786889e-38
0.59244561 0.097845733 0.61000007 1.0786889e-38
0.59563553 0.098032594 0.61000007 1.0786889e-38
0.59883958 0.097354136 0.61000007 1.0786889e-38
0.60098487 0.097478382 0.61000007 1.0786889e-38
0.60421711 0.097665563 0.61000013 1.0786889e-38
0.60746366 0.096981704 0.61000007 1.0786889e-38
0.61072809 0.09716858 0.61000019 1.0786889e-38
0.61400712 0.09735629 0.61000019 1.0786889e-38
0.61620283 0.097481981 0.61000025 1.0786889e-38
0.61951113 0.097671382 0.61000025 1.0786889e-38
0.62283409 0.097861603 0.61000037 1.0786889e-38
0.62505937 0.097988993 0.61000031 1.0786889e-38
0.62841231 0.097295113 0.61000037 1.0786889e-38
0.63178027 0.097485676 0.61000031 1.0786889e-38
0.63403571 0.09761329 0.61000037 1.0786889e-38
0.63781267 0.097231932 0.61000043 1.0786889e-38
0.64084816 0.097104639 0.61000037 1.0786889e-38
0.64313436 0.097232476 0.61000037 1.0786889e-38
0.64657933 0.097425103 0.61000049 1.0786889e-38
0.65004009 0.097618617 0.61000037 1.0786889e-38
0.6523577 0.097748205 0.61000055 1.0786889e-38
0.65468335 0.097878247 0.61000049 1.0786889e-38
0.65779752 0.097750224 0.61000061 1.0786889e-38
0.66170835 0.097363062 0.61000055 1.0786889e-38
0.6640662 0.097493328 0.61000061 1.0786889e-38
0.66761935 0.097689644 0.61000061 1.0786889e-38
0.67118901 0.096972555 0.61000067 1.0786889e-38
0.67357981 0.097103059 0.61000067 1.0786889e-38
0.67597896 0.097234018 0.61000061 1.0786889e-38
0.6795944 0.097431362 0.61000067 1.0786889e-38
0.68322676 0.097629637 0.61000073 1.0786889e-38
0.68565971 0.097762421 0.61000079 1.0786889e-38
0.68810123 0.097895697 0.61000073 1.0786889e-38
0.69055128 0.098029435 0.61000073 1.0786889e-38
0.69424373 0.097301334 0.61000079 1.0786889e-38
0.69795358 0.09750136 0.61000085 1.0786889e-38
0.70043862 0.097635351 0.61000079 1.0786889e-38
0.70293236 0.097769812 0.61000085 1.0786889e-38
0.70669079 0.097034529 0.61000091 1.0786889e-38
0.71046716 0.097235635 0.61000091 1.0786889e-38
0.71299678 0.097370341 0.61000097 1.0786889e-38
0.71553546 0.097505525 0.61000097 1.0786889e-38
0.71808338 0.097641215 0.61000091 1.0786889e-38
0.7206403 0.097777382 0.61000097 1.0786889e-38
0.72406501 0.097642876 0.61000103 1.0786889e-38
0.72836679 0.097236477 0.61000097 1.0786889e-38
0.73096091 0.09737289 0.61000109 1.0786889e-38
0.7335645 0.097509801 0.61000109 1.0786889e-38
0.73617762 0.09764722 0.61000109 1.0786889e-38
0.73880023 0.097785138 0.61000109 1.0786889e-38
0.74143237 0.096962497 0.61000109 1.0786889e-38
0.74539995 0.097168498 0.61000109 1.0786889e-38
0.74938691 0.097375505 0.61000121 1.0786889e-38
0.75205803 0.097514197 0.61000115 1.0786889e-38
0.75473881 0.097653382 0.61000121 1.0786889e-38
0.75742966 0.097793095 0.61000121 1.0786889e-38
0.76013029 0.097933322 0.61000133 1.0786889e-38
0.76284105 0.097098753 0.61000133 1.0786889e-38
0.76556194 0.097238213 0.61000133 1.0786889e-38
0.76829284 0.097378187 0.61000133 1.0786889e-38
0.77240968 0.097589195 0.61000133 1.0786889e-38
0.77654696 0.097801253 0.61000139 1.0786889e-38
0.77931905 0.097943343 0.61000133 1.0786889e-38
0.78210139 0.097097829 0.61000144 1.0786889e-38
0.78489423 0.097239114 0.6100015 1.0786889e-38
0.78769773 0.097380951 0.61000144 1.0786889e-38
0.79051167 0.097523302 0.6100015 1.0786889e-38
0.79333639 0.097666204 0.61000144 1.0786889e-38
0.79617172 0.097809643 0.6100015 1.0786889e-38
0.79901779 0.097953625 0.61000156 1.0786889e-38
0.80187482 0.097096875 0.61000156 1.0786889e-38
0.80474263 0.097240046 0.61000156 1.0786889e-38
0.80762148 0.097383767 0.61000156 1.0786889e-38
0.81051129 0.097528033 0.61000162 1.0786889e-38
0.81341231 0.097672865 0.61000156 1.0786889e-38
0.81632441 0.097818255 0.61000156 1.0786889e-38
0.81924766 0.09796419 0.61000162 1.0786889e-38
0.82218206 0.097095877 0.61000168 1.0786889e-38
0.82512802 0.097240999 0.61000168 1.0786889e-38
0.8280853 0.097386673 0.61000174 1.0786889e-38
0.83105415 0.097532906 0.61000174 1.0786889e-38
0.83403444 0.097679719 0.61000168 1.0786889e-38
0.8370263 0.097827092 0.61000186 1.0786889e-38
0.84002995 0.096948355 0.6100018 1.0786889e-38
0.84304529 0.097094886 0.6100018 1.0786889e-38
0.84607238 0.097241975 0.61000186 1.0786889e-38
0.8491115 0.097389661 0.61000186 1.0786889e-38
0.85216242 0.097537912 0.61000186 1.0786889e-38
0.85522544 0.097686753 0.61000192 1.0786889e-38
0.85830057 0.097836189 0.61000192 1.0786889e-38
0.86138779 0.097986199 0.61000198 1.0786889e-38
0.86448735 0.09709385 0.61000198 1.0786889e-38
0.86759925 0.097242989 0.61000198 1.0786889e-38
0.33162954 0.10046267 0.60999829 1.0786889e-38
0.33502108 0.10072003 0.60999835 1.0786889e-38
0.33775094 0.10092719 0.60999829 1.0786889e-38
