# .PCD v0.7 - Point Cloud Data file format
VERSION 0.7
FIELDS x y z rgb
SIZE 4 4 4 4
TYPE F F F F
COUNT 1 1 1 1
WIDTH 1004
HEIGHT 1
VIEWPOINT 0 0 0 1 0 0 0
POINTS 1004
DATA ascii
0.40551883 -0.31413189 0.65565789 6.2448278e-39
0.40437245 -0.31076813 0.65542704 6.2448278e-39
0.4034104 -0.30790016 0.65533018 6.2448278e-39
0.40231663 -0.30495977 0.65453517 6.2448278e-39
0.40130851 -0.30168793 0.65500343 6.2448278e-39
0.40030366 -0.29842648 0.65547049 6.2448278e-39
0.39898556 -0.29460371 0.65510958 6.2448278e-39
0.39944291 -0.29639274 0.65424615 6.2448278e-39
0.39806914 -0.29213065 0.65541685 6.2448278e-39
0.3981066 -0.29004872 0.65534604 6.4306595e-39
0.39987239 -0.28869045 0.65533453 6.2448278e-39
0.40119946 -0.28778607 0.65662766 6.2448278e-39
0.40323287 -0.28651991 0.65566158 6.2448278e-39
0.40527672 -0.28524721 0.65469134 6.4292176e-39
0.40662563 -0.2843467 0.6559667 7.9046868e-39
0.40902349 -0.28283817 0.65531373 8.1812695e-39
0.41037601 -0.28193516 0.65659457 6.6136061e-39
0.4124527 -0.28064162 0.6556201 6.2448278e-39
0.41454011 -0.27934134 0.65464127 6.2448278e-39
0.41590223 -0.27843204 0.65592772 6.3377436e-39
0.41882747 -0.27676785 0.65534377 6.2451879e-39
0.42140254 -0.27542397 0.65494502 6.2448278e-39
0.4242703 -0.27391613 0.65545398 6.2448278e-39
0.42763814 -0.27215096 0.65557152 6.2448278e-39
0.43015227 -0.27083364 0.65582073 6.2448278e-39
0.43309107 -0.26931491 0.65535384 6.2448278e-39
0.43624067 -0.26769149 0.65547824 6.2448278e-39
0.43921983 -0.26617378 0.65592539 6.2448278e-39
0.44191518 -0.26478648 0.65549362 6.2448278e-39
0.44984585 -0.39473975 0.65735757 6.2448278e-39
0.45019859 -0.39558852 0.65951777 6.3373821e-39
0.44697028 -0.39000577 0.65939772 6.3380996e-39
0.4467361 -0.38926756 0.65703857 6.0611568e-39
0.44378227 -0.38447535 0.65924126 6.3380996e-39
0.44079387 -0.37914693 0.65877712 6.6136075e-39
0.43781936 -0.37384325 0.65831506 6.8898328e-39
0.43511009 -0.36879802 0.65742266 6.4292176e-39
0.43254739 -0.36443347 0.65906954 7.7199452e-39
0.42990434 -0.35947078 0.6581068 9.3790938e-39
0.42726976 -0.35452408 0.65714705 1.0668026e-38
0.42430866 -0.34983826 0.65956736 1.0024816e-38
0.42179984 -0.34502864 0.65843409 8.4571445e-39
0.41934937 -0.34027821 0.65721154 7.2582524e-39
0.41684729 -0.33605075 0.65889663 7.7188662e-39
0.41441506 -0.33133483 0.65767962 7.9032561e-39
0.41194397 -0.32716197 0.65935463 7.8128555e-39
0.40952963 -0.32248014 0.65814316 6.984541e-39
0.40739709 -0.31862837 0.65924227 6.6150438e-39
0.40442407 -0.31206906 0.6590988 6.2451879e-39
0.40247482 -0.30498642 0.65707564 6.2448278e-39
0.40018284 -0.29963911 0.65853179 6.2448278e-39
0.3979066 -0.29432845 0.65997791 6.2448278e-39
0.39791489 -0.29152966 0.65996242 6.2448278e-39
0.39811164 -0.29067773 0.65817732 6.2448278e-39
0.4002291 -0.28911877 0.65844578 6.2448278e-39
0.40194875 -0.28761578 0.65805733 6.2448278e-39
0.40377438 -0.28650832 0.65889502 6.2448278e-39
0.4056024 -0.28540003 0.65973508 6.2448278e-39
0.40702534 -0.28412464 0.65898895 8.6426008e-39
0.40932316 -0.28254563 0.65852088 7.0749373e-39
0.41086245 -0.28156412 0.65851814 6.3370234e-39
0.41318032 -0.2800861 0.65851396 6.2455494e-39
0.41550714 -0.27860236 0.65850985 6.8012441e-39
0.4184216 -0.27693877 0.65887058 7.0799918e-39
0.42165235 -0.27524927 0.65869617 6.2455494e-39
0.42472258 -0.27365491 0.65791124 6.2448278e-39
0.42713416 -0.27240974 0.65877658 6.2448278e-39
0.43063912 -0.27060577 0.6582185 6.2448278e-39
0.43309224 -0.269364 0.65905207 6.2448278e-39
0.43624258 -0.26773745 0.65824783 6.2448278e-39
0.43921334 -0.26622415 0.65870154 6.2448278e-39
0.44100487 -0.26530212 0.65841967 6.2448278e-39
0.45049542 -0.39638203 0.66176182 6.4299351e-39
0.44719517 -0.39073324 0.66176248 6.799791e-39
0.44391471 -0.38511813 0.66176313 6.8919852e-39
0.44089448 -0.37976354 0.6613574 7.1660568e-39
0.43792599 -0.37446952 0.6608904 7.6266734e-39
0.43524316 -0.36971781 0.66133606 7.3508068e-39
0.43264139 -0.36505455 0.6616689 7.8121408e-39
0.43007588 -0.36127496 0.66129541 8.73373e-39
0.42716405 -0.35524237 0.66149229 1.0484714e-38
0.42424166 -0.35032374 0.66245639 1.0485792e-38
0.42172951 -0.34551686 0.66133946 9.0106728e-39
0.41928548 -0.34077805 0.66011655 7.719225e-39
0.41679001 -0.33655947 0.66178644 8.4557068e-39
0.4143641 -0.33185506 0.66056901 8.0876445e-39
0.41206974 -0.32784086 0.66192096 7.6288258e-39
0.41006607 -0.32409465 0.66276383 8.1859442e-39
0.40973103 -0.32322991 0.66058022 7.6320586e-39
0.40773559 -0.31949955 0.66142565 7.1696483e-39
0.40569872 -0.31574386 0.66236186 6.3373821e-39
0.40535957 -0.31487054 0.66018283 6.2451879e-39
0.41323024 -0.31343406 0.66136253 6.3377436e-39
0.4021253 -0.30669707 0.66054809 6.2448278e-39
0.39984226 -0.30136192 0.66198736 6.2448278e-39
0.39805278 -0.29205474 0.6615839 6.4306595e-39
0.39952648 -0.2912845 0.66257656 6.2448278e-39
0.40053225 -0.28998098 0.66126281 6.2448278e-39
0.40248346 -0.28864023 0.6617558 6.2448278e-39
0.4043088 -0.28698334 0.66118604 6.2448278e-39
0.40647545 -0.28554747 0.66186887 7.35152e-39
0.40783936 -0.2842285 0.66123587 1.0763432e-38
0.40950981 -0.28299919 0.66144943 7.1671316e-39
0.41229612 -0.28089362 0.66151202 6.3381038e-39
0.41443735 -0.27922362 0.66043711 7.0807163e-39
0.41584572 -0.27835897 0.66162235 1.004393e-38
0.41860712 -0.27683076 0.66132528 9.0243761e-39
0.42165983 -0.275258 0.6614626 6.3373835e-39
0.42455059 -0.27378565 0.66191542 6.245548e-39
0.42763814 -0.27219155 0.66112888 6.4306609e-39
0.43016776 -0.27090004 0.66134101 7.3572962e-39
0.43358985 -0.26914927 0.66141778 6.8937985e-39
0.43653896 -0.26764718 0.66187561 6.3373849e-39
0.43920827 -0.26627356 0.6614635 6.2448278e-39
0.44159591 -0.26502925 0.66017377 6.2448278e-39
0.45071423 -0.39709896 0.6641252 6.4299351e-39
0.44741929 -0.39145815 0.66411883 7.2614824e-39
0.44414401 -0.38585091 0.66411245 7.4455121e-39
0.44099474 -0.38037759 0.6639269 7.8110604e-39
0.43803221 -0.37509322 0.66345489 8.3635126e-39
0.43537545 -0.37063235 0.66522717 8.4564257e-39
0.43273491 -0.36567307 0.66425711 8.0883648e-39
0.43002498 -0.36065775 0.66342461 9.2865394e-39
0.42705262 -0.35594994 0.66581905 1.0484714e-38
0.42417496 -0.35080665 0.66533089 1.0762736e-38
0.42165959 -0.34600258 0.66422999 9.5642011e-39
0.41919026 -0.34152269 0.66444439 8.180559e-39
0.41676158 -0.33709115 0.66461068 9.2843814e-39
0.41474158 -0.33331305 0.66544807 9.008875e-39
0.41441321 -0.3324613 0.66326439 8.547901e-39
0.4124015 -0.32869917 0.66410446 7.72102e-39
0.41040015 -0.32495666 0.66494024 8.7398299e-39
0.40840942 -0.32123369 0.66577154 8.2788573e-39
0.40807301 -0.32036799 0.66360211 7.8171659e-39
0.40603673 -0.31661445 0.66453391 6.3377408e-39
0.4038386 -0.31244183 0.66438365 6.2451879e-39
0.40177816 -0.30839622 0.66399699 6.2448278e-39
0.39950395 -0.30307317 0.66541982 6.2448278e-39
0.39741048 -0.29473278 0.66465861 6.987792e-39
0.39825854 -0.29284027 0.66400868 6.4306595e-39
0.40039873 -0.2914246 0.66468984 6.2448278e-39
0.40174025 -0.29012722 0.66406727 6.2448278e-39
0.40359697 -0.28885701 0.66455072 6.2448278e-39
0.40622425 -0.28683338 0.66465539 6.7979945e-39
0.40802777 -0.28503698 0.66368461 1.0855627e-38
0.40985358 -0.28392044 0.66454172 7.35152e-39
0.41283751 -0.28108129 0.66424447 7.8197121e-39
0.41427457 -0.27979112 0.66351318 9.765181e-39
0.41568246 -0.27833787 0.6651504 1.0226875e-38
0.41847783 -0.27720293 0.66432738 8.1895722e-39
0.42164022 -0.27560294 0.66426384 6.3370248e-39
0.42425561 -0.27429938 0.66519088 6.5228566e-39
0.42753291 -0.27238274 0.66498733 9.5797093e-39
0.43057346 -0.27074265 0.66431129 1.0227597e-38
0.43310937 -0.26944807 0.66453022 9.6722665e-39
0.43604842 -0.26793572 0.66408372 6.9863543e-39
0.43999246 -0.26592693 0.66470259 6.2448292e-39
0.44157326 -0.26513427 0.66568404 6.2448278e-39
0.45093226 -0.39781332 0.66648018 6.3377408e-39
0.44775388 -0.39254031 0.66763651 7.4465897e-39
0.44460016 -0.38730854 0.66878605 8.0923095e-39
0.44437248 -0.386581 0.66645342 7.999039e-39
0.44123805 -0.38138238 0.66760302 8.5496947e-39
0.43819058 -0.3760235 0.66728044 9.1929047e-39
0.41587496 -0.3720957 0.66677177 6.2448278e-39
0.43546307 -0.37123859 0.66780651 9.1007119e-39
0.43282807 -0.36628884 0.66683441 8.3649489e-39
0.42994326 -0.36111653 0.66630948 9.3783749e-39
0.42697889 -0.35641849 0.66868401 1.0484714e-38
0.4241088 -0.35128725 0.66819054 1.0855289e-38
0.43244264 -0.35337213 0.6674543 6.2448278e-39
0.42158997 -0.34648579 0.66710573 1.0117729e-38
0.4194361 -0.34256911 0.66814357 8.9184772e-39
0.41724837 -0.3383576 0.6678828 9.6542374e-39
0.41506886 -0.33416206 0.66762483 9.5627606e-39
0.4130618 -0.3304075 0.66845083 9.290124e-39
0.41273212 -0.32955468 0.66628116 8.1827114e-39
0.41073322 -0.32581592 0.66710985 8.9245784e-39
0.40874422 -0.32209617 0.66793507 8.2788573e-39
0.40670961 -0.31834722 0.66885746 6.7068793e-39
0.40637374 -0.31748217 0.66669917 6.5221307e-39
0.40434802 -0.31375015 0.66762376 6.2451879e-39
0.40199184 -0.30916375 0.66639292 6.2448278e-39
0.40233332 -0.31003851 0.6685434 6.2448278e-39
0.39998585 -0.3054688 0.66731489 6.2448278e-39
0.39724523 -0.29778636 0.66683275 6.2448278e-39
0.39720345 -0.29516613 0.66784066 8.0084221e-39
0.39853132 -0.29388314 0.66722721 6.2448278e-39
0.40016571 -0.29268429 0.66744608 6.2448278e-39
0.40213704 -0.29170471 0.66890395 6.2448278e-39
0.40193903 -0.29091752 0.66649032 6.2448278e-39
0.40375113 -0.28982154 0.66733003 6.2448278e-39
0.40530199 -0.28851509 0.66865242 6.2448278e-39
0.40673321 -0.28716454 0.66743129 7.1671316e-39
0.40827754 -0.28551573 0.66739511 1.0117713e-38
0.40981227 -0.28384987 0.66738808 7.2593258e-39
0.41129208 -0.28250384 0.66610301 6.2448292e-39
0.41238454 -0.2809431 0.66782618 8.7452683e-39
0.41437131 -0.27913409 0.66610992 1.0875126e-38
0.41573915 -0.27836353 0.66781092 8.8381828e-39
0.41889831 -0.27714893 0.66771716 6.4302994e-39
0.42079502 -0.27641019 0.66712683 6.3373835e-39
0.42567739 -0.27869031 0.66823941 8.7459872e-39
0.42428106 -0.27504086 0.6678918 6.2451893e-39
0.42682305 -0.27367654 0.66758645 8.282851e-39
0.42841861 -0.2726863 0.66756654 1.0690014e-38
0.43040577 -0.27137169 0.66733837 9.0222111e-39
0.43206865 -0.27066475 0.66813076 7.539884e-39
0.43365029 -0.26939258 0.66725254 1.013468e-38
0.4361515 -0.26806572 0.66754884 9.4871549e-39
0.43899885 -0.26647937 0.66728276 6.3377436e-39
0.450977 -0.39860865 0.67045242 6.2448278e-39
0.44783294 -0.39337367 0.67155302 6.9841808e-39
0.44473177 -0.38794267 0.67126739 8.1845051e-39
0.44158638 -0.38248265 0.67108345 9.1975696e-39
0.4383648 -0.37696445 0.67105663 9.7471491e-39
0.43555045 -0.37184221 0.67037493 9.5609669e-39
0.43275803 -0.36675054 0.66967756 9.0088764e-39
0.4298695 -0.36184436 0.67052555 9.9308257e-39
0.42708242 -0.35704738 0.67123008 1.0484715e-38
0.42429924 -0.3519997 0.67059135 1.085493e-38
0.42214793 -0.34807748 0.67160225 1.0948921e-38
0.4217906 -0.34721142 0.66949546 1.0579782e-38
0.41975653 -0.34340507 0.67032045 9.7489483e-39
0.41773319 -0.33961874 0.67114097 1.011593e-38
0.41555983 -0.33543211 0.67087221 1.0117364e-38
0.41339028 -0.33125752 0.67061365 1.0213864e-38
0.41139597 -0.32752621 0.67142844 9.9394352e-39
0.41106516 -0.32667243 0.6692726 9.2933554e-39
0.40907675 -0.32295489 0.67009389 8.2781384e-39
0.40704447 -0.31920952 0.67100883 6.7997924e-39
0.40502334 -0.31548458 0.67191887 6.2448292e-39
0.40468621 -0.31461877 0.66977471 6.2451879e-39
0.40267378 -0.31091058 0.67068708 6.2448278e-39
0.40050098 -0.30678481 0.67052621 6.2448278e-39
0.40243191 -0.30302688 0.67071289 6.2448278e-39
0.39833677 -0.3026756 0.67036766 6.2448278e-39
0.3965376 -0.29848495 0.67093253 8.1931735e-39
0.39768487 -0.29577357 0.67046672 7.6371215e-39
0.39940554 -0.29443228 0.67116213 6.4306595e-39
0.40074685 -0.2930539 0.67007524 6.2448278e-39
0.40240252 -0.29114938 0.67118335 6.2448278e-39
0.40384874 -0.28983548 0.66992104 6.2448278e-39
0.40638867 -0.28696379 0.67036074 7.35152e-39
0.40942797 -0.28363511 0.67037988 7.4437143e-39
0.41251302 -0.28030854 0.67034888 9.6711847e-39
0.41425312 -0.27900559 0.67182004 1.0875126e-38
0.41579318 -0.27838999 0.67045951 7.9115462e-39
0.41841248 -0.27737525 0.66994673 6.4302994e-39
0.42117074 -0.27632749 0.67057812 6.2448278e-39
0.42244977 -0.27584529 0.67107701 6.2448278e-39
0.42435527 -0.27510333 0.6704942 6.2448278e-39
0.42755112 -0.27386352 0.670425 8.5601582e-39
0.43079478 -0.27227962 0.67030454 9.3009602e-39
0.43337989 -0.27092206 0.67079341 6.8001609e-39
0.43456876 -0.26960158 0.66932136 8.5597952e-39
0.4368062 -0.26870215 0.67051691 9.6711833e-39
0.43914303 -0.26749888 0.67110574 9.208766e-39
0.43987852 -0.26655456 0.66987634 6.5228566e-39
0.44177157 -0.26574856 0.67077541 6.3373835e-39
0.45102423 -0.39940214 0.67439693 6.2448278e-39
0.44778752 -0.39383203 0.67430872 6.6146837e-39
0.44469386 -0.38841283 0.67401665 8.1845051e-39
0.44161612 -0.38302159 0.67372614 9.5681416e-39
0.43855429 -0.37765807 0.67343712 1.0117364e-38
0.43557119 -0.37238127 0.67304361 9.9290278e-39
0.43289503 -0.36766371 0.67350656 1.0020863e-38
0.43030375 -0.363038 0.6738506 1.0482918e-38
0.42751205 -0.35797441 0.67320597 1.0576551e-38
0.4249472 -0.35339603 0.67354792 1.0854213e-38
0.42251289 -0.3489489 0.67368746 1.1041475e-38
0.4204874 -0.34515327 0.67449141 1.0857084e-38
0.4201203 -0.34427851 0.67241281 1.0487227e-38
0.41810328 -0.34049934 0.6732192 1.0393233e-38
0.41609675 -0.33673978 0.6740213 1.0580133e-38
0.41372639 -0.33211255 0.67275441 1.076811e-38
0.41410047 -0.33299959 0.67481941 1.0952498e-38
0.41173851 -0.32838851 0.67355484 1.0585874e-38
0.4097327 -0.32465893 0.67440164 8.3699725e-39
0.40940827 -0.32381094 0.6722458 8.3703327e-39
0.40737832 -0.32006913 0.67315346 7.0763751e-39
0.40533334 -0.31632513 0.67410338 6.2448292e-39
0.40301311 -0.31177992 0.67282397 6.2448278e-39
0.40098828 -0.3080734 0.6737709 6.2448278e-39
0.39882463 -0.30396798 0.67361116 6.2448278e-39
0.39646435 -0.29901454 0.67383397 6.2448278e-39
0.39743084 -0.2959637 0.67342782 7.7293171e-39
0.40050694 -0.29277858 0.67327672 6.2451879e-39
0.40350464 -0.28949371 0.67330396 6.2448278e-39
0.40651941 -0.28619009 0.67333138 7.9050455e-39
0.40921929 -0.28320161 0.6734972 7.0745786e-39
0.41054815 -0.28186554 0.67294389 6.3373849e-39
0.41240022 -0.2799637 0.67328811 1.0319431e-38
0.41575751 -0.27846169 0.67371136 8.6534328e-39
0.41847801 -0.27741286 0.67347044 6.5232153e-39
0.42154232 -0.27624601 0.67401385 6.2448292e-39
0.42439216 -0.27513647 0.67315114 6.245548e-39
0.42791814 -0.27379546 0.67386365 9.4878766e-39
0.42951226 -0.27315897 0.67249405 1.0875487e-38
0.43017054 -0.27293444 0.67407721 1.078257e-38
0.4336051 -0.27159634 0.67365867 7.1707427e-39
0.4360646 -0.27037638 0.67356271 6.2448292e-39
0.43723541 -0.26940972 0.67294782 7.9097483e-39
0.4393003 -0.2683754 0.67354017 9.5786275e-39
0.44136894 -0.26733971 0.67413533 8.8378227e-39
0.44294974 -0.26603749 0.67331219 6.522495e-39
0.44774228 -0.39428824 0.67705131 6.4299351e-39
0.44465613 -0.38888073 0.67675281 7.8150079e-39
0.44158578 -0.38350105 0.67645603 9.4763061e-39
0.43859321 -0.37820756 0.67605764 1.0303547e-38
0.43580177 -0.37337252 0.67668891 1.0021222e-38
0.43336016 -0.36887878 0.67676014 1.0388924e-38
0.43072951 -0.36395776 0.67582452 1.0666947e-38
0.42815414 -0.35936001 0.67615956 1.0760581e-38
0.4255929 -0.35478753 0.67649418 1.0853494e-38
0.42287678 -0.34981769 0.67576653 1.1041115e-38
0.42326105 -0.35070348 0.6778028 1.1040756e-38
0.42085332 -0.34602541 0.67656392 1.0950356e-38
0.41884029 -0.34225279 0.67735714 1.0764887e-38
0.41847235 -0.34137738 0.67529118 1.0578342e-38
0.41646773 -0.33762103 0.67608684 1.0766318e-38
0.41446537 -0.33387685 0.67689264 1.0952498e-38
0.41241324 -0.33009881 0.67780066 1.0953575e-38
0.41209728 -0.32926339 0.6756441 1.0769545e-38
0.41005397 -0.32550234 0.67655444 8.461808e-39
0.40796649 -0.32171345 0.67755884 7.0756576e-39
0.40765125 -0.3208738 0.67539859 7.1682106e-39
0.40560204 -0.31712788 0.67635334 6.2448292e-39
0.40342847 -0.31299937 0.67618173 6.2448278e-39
0.40126348 -0.30888742 0.67601275 6.2448278e-39
0.39924556 -0.30519962 0.67695957 6.2448278e-39
0.39751387 -0.30110982 0.67648143 6.2448278e-39
0.3969678 -0.29861203 0.67657185 6.2448278e-39
0.41150609 -0.29902801 0.67718387 6.1529923e-39
0.39732453 -0.29522398 0.67591637 6.7094058e-39
0.40035704 -0.2918826 0.67629957 6.3373835e-39
0.40294367 -0.28898033 0.67706144 6.2448278e-39
0.40460366 -0.28784174 0.67542297 6.2448278e-39
0.40616557 -0.28586143 0.67670321 8.1812695e-39
0.40761912 -0.28453618 0.6754564 9.1035733e-39
0.40866387 -0.28321165 0.67631221 7.2593258e-39
0.41018045 -0.28154907 0.67632926 6.5221349e-39
0.41269413 -0.27968577 0.67639995 9.8559291e-39
0.41436958 -0.27905434 0.67706132 1.1059876e-38
0.41623235 -0.27832901 0.67649955 9.4860731e-39
0.41894957 -0.27728164 0.67626578 6.6157711e-39
0.42064148 -0.27664393 0.67693114 6.3373849e-39
0.42252988 -0.27590877 0.67636549 6.2451893e-39
0.42423263 -0.27526692 0.67703122 6.7083282e-39
0.42740902 -0.27403051 0.67608529 9.3942404e-39
0.42956066 -0.27323508 0.67780423 1.1060236e-38
0.43115592 -0.27259839 0.67644715 8.9307372e-39
0.43308815 -0.27184629 0.67587459 7.0778268e-39
0.43622589 -0.27065146 0.67642879 6.3373835e-39
0.43796289 -0.26999658 0.67710513 6.8005211e-39
0.43984747 -0.26892689 0.67576224 8.9303798e-39
0.44233406 -0.26771462 0.67655921 9.3006001e-39
0.4440369 -0.26714891 0.67776632 7.2632985e-39
0.44388974 -0.26626861 0.67533779 6.5228552e-39
0.445225 -0.26617339 0.67715573 6.4302994e-39
0.44784051 -0.39488018 0.6795491 6.3373821e-39
0.44461852 -0.38934642 0.67947602 7.1685693e-39
0.44167131 -0.38408846 0.67898268 8.3688935e-39
0.43880996 -0.37917721 0.67970312 8.8287913e-39
0.43604589 -0.37437248 0.68029088 9.3790896e-39
0.43880618 -0.37390888 0.67862499 1.1041833e-38
0.4333145 -0.36935383 0.67951363 1.0205612e-38
0.43099275 -0.36498547 0.67940247 1.0666587e-38
0.42868054 -0.36063576 0.67929506 1.0852416e-38
0.42619279 -0.35613331 0.67950076 1.0853135e-38
0.42369163 -0.35163015 0.67975181 1.1040039e-38
0.42478189 -0.3494913 0.68033785 7.6291831e-39
0.42140013 -0.34732857 0.67966044 1.1043269e-38
0.41920722 -0.34312564 0.67941707 1.0951073e-38
0.41714793 -0.33932316 0.68030173 1.1045057e-38
0.41683769 -0.33849967 0.6781463 1.0951425e-38
0.41477793 -0.33470571 0.67904967 1.1045051e-38
0.41272825 -0.33093148 0.6799503 1.0861022e-38
0.41068977 -0.32717788 0.68084598 9.0135399e-39
0.41037244 -0.32634151 0.67870361 8.8295088e-39
0.40829784 -0.32256544 0.67968148 6.890909e-39
0.40621597 -0.31879419 0.68068796 6.3370234e-39
0.40588224 -0.31793869 0.67857307 6.2451879e-39
0.40383476 -0.31420708 0.679537 6.2448278e-39
0.40167436 -0.31010279 0.67936009 6.2448278e-39
0.39977717 -0.30652085 0.68008339 6.2448278e-39
0.39847302 -0.30316103 0.6783731 6.2448278e-39
0.39912981 -0.30430019 0.6799016 6.2448278e-39
0.3985835 -0.30180433 0.67998934 6.2448278e-39
0.39760026 -0.29855049 0.67906022 6.2448278e-39
0.39710921 -0.29551512 0.67950463 6.4302994e-39
0.39826295 -0.29224753 0.68012112 6.4302994e-39
0.40012491 -0.29131275 0.67808789 6.2448278e-39
0.40106469 -0.28992695 0.67910576 6.2448278e-39
0.40200442 -0.28854114 0.68012357 6.2448278e-39
0.40435845 -0.28689408 0.6785937 6.2448278e-39
0.40530151 -0.28550327 0.67961526 7.4437157e-39
0.40696031 -0.28397581 0.67935735 8.7347964e-39
0.40862256 -0.28244328 0.67910326 7.2593258e-39
0.41018993 -0.28082556 0.6790272 6.6157683e-39
0.41220149 -0.27987409 0.67952943 7.8193505e-39
0.41577825 -0.2784462 0.67909807 1.0041765e-38
0.41846156 -0.27749977 0.67936587 8.9311001e-39
0.42157921 -0.27627292 0.67935216 8.2835713e-39
0.42479157 -0.2750912 0.67921245 8.9318218e-39
0.4273982 -0.27404284 0.67968506 1.0504904e-38
0.43021584 -0.27301151 0.6793763 9.2995169e-39
0.43343258 -0.27177542 0.679317 6.4299393e-39
0.43698362 -0.27041417 0.68006492 6.5228552e-39
0.41998279 -0.26951328 0.68097943 7.1678532e-39
0.43948802 -0.2694453 0.67902869 8.7456284e-39
0.44275942 -0.26820409 0.67985868 9.7633761e-39
0.44536951 -0.26705363 0.67957997 6.7076052e-39
0.44655949 -0.26607823 0.67897272 6.3373835e-39
0.44799799 -0.39552724 0.68194038 6.2451879e-39
0.44475144 -0.38997316 0.68190968 6.6146837e-39
0.44187912 -0.38504109 0.6826207 6.983462e-39
0.43902814 -0.38014418 0.68332541 7.0763751e-39
0.43621069 -0.3750385 0.68267494 8.735881e-39
0.43340486 -0.36995381 0.68202722 1.00223e-38
0.4309333 -0.36570847 0.68350112 1.0666228e-38
0.42864645 -0.36112767 0.68202436 1.0852416e-38
0.42633533 -0.35705483 0.68326747 1.0944971e-38
0.42406183 -0.3525002 0.68179697 1.1039679e-38
0.42190433 -0.34858978 0.68281424 1.1135464e-38
0.41967571 -0.34435776 0.68263197 1.1044704e-38
0.41399521 -0.34054342 0.6817888 1.1040755e-38
0.41745603 -0.34014291 0.6824522 1.1138329e-38
0.41539997 -0.33635551 0.68334299 1.1231235e-38
0.41508943 -0.33553195 0.68119979 1.1138323e-38
0.41304213 -0.33176148 0.68209314 1.0861022e-38
0.41100609 -0.32801163 0.68298143 9.2894065e-39
0.40895748 -0.32426143 0.68390673 7.3508054e-39
0.40862817 -0.32341474 0.6817975 6.7983547e-39
0.40654862 -0.31964695 0.68279624 6.705443e-39
0.40431353 -0.31547269 0.68273896 6.5210531e-39
0.40208805 -0.31131661 0.68268359 6.2451879e-39
0.40056372 -0.30736783 0.68272901 6.2448278e-39
0.39986706 -0.3044194 0.68263513 6.2448278e-39
0.39917147 -0.30147412 0.6825428 6.2448278e-39
0.39847654 -0.29853261 0.68244916 6.2448278e-39
0.39778253 -0.29559427 0.68235695 6.2448278e-39
0.39725646 -0.29289788 0.6824109 6.245548e-39
0.4001357 -0.28948593 0.68214935 6.2448278e-39
0.40154022 -0.28741479 0.68367052 6.2448278e-39
0.40341407 -0.28646252 0.68165022 6.337022e-39
0.4048236 -0.28438389 0.68317688 7.9050455e-39
0.40691671 -0.28272781 0.68303972 7.9050455e-39
0.40968293 -0.28110144 0.68262541 6.2451879e-39
0.4125286 -0.27951279 0.68209773 7.4480485e-39
0.41398168 -0.27872336 0.68313456 8.0037418e-39
0.41559654 -0.27782458 0.68300092 1.013143e-38
0.41910365 -0.27667791 0.68228197 9.6722637e-39
0.42200446 -0.27552956 0.68264258 9.6715434e-39
0.42411989 -0.27496225 0.68169791 1.0319792e-38
0.42745131 -0.27350906 0.68271255 7.9115476e-39
0.43073088 -0.27234727 0.68251014 6.8005211e-39
0.43295091 -0.27146876 0.68278456 6.2448292e-39
0.43511927 -0.27088398 0.68183064 6.2448292e-39
0.43741542 -0.26970261 0.68333387 7.3558542e-39
0.43960476 -0.26911056 0.68237805 8.8374625e-39
0.44192141 -0.26826099 0.68255174 7.7267962e-39
0.4441843 -0.26736486 0.68283093 6.522495e-39
0.44634688 -0.26672113 0.68196607 6.707245e-39
0.44713205 -0.26659 0.68333638 6.2451879e-39
0.44832104 -0.39657801 0.68536812 6.2448278e-39
0.44500294 -0.39095941 0.6854552 6.2448292e-39
0.44208586 -0.38598877 0.68623966 6.5224894e-39
0.43918735 -0.38079923 0.68570399 6.8912678e-39
0.43637496 -0.37570196 0.68504989 8.36746e-39
0.43365839 -0.37096024 0.68557966 9.8386286e-39
0.43095839 -0.36624753 0.68610847 1.0574393e-38
0.42861265 -0.36161721 0.68474048 1.0852416e-38
0.42630714 -0.35755253 0.68597174 1.0944971e-38
0.42403919 -0.35300839 0.68450248 1.1039679e-38
0.42196792 -0.34917986 0.68537098 1.1135464e-38
0.41997749 -0.34543508 0.68611568 1.1136899e-38
0.41788009 -0.3413347 0.68572623 1.1137971e-38
0.4324097 -0.34121051 0.68440139 6.2448278e-39
0.41570944 -0.33717644 0.68547934 1.1231236e-38
0.41366708 -0.33341354 0.68635809 1.0767391e-38
0.41335511 -0.33258885 0.68422896 1.0859944e-38
0.41132146 -0.3288427 0.68511009 9.8407796e-39
0.40928572 -0.32510543 0.68600953 8.3642286e-39
0.40721077 -0.32134449 0.68699312 8.1791213e-39
0.4068802 -0.32049704 0.68489796 7.3504466e-39
0.40481484 -0.31675428 0.6858834 7.3504466e-39
0.40259963 -0.31261006 0.68580854 6.522488e-39
0.4011631 -0.30914325 0.68434978 5.8778445e-39
0.42243749 -0.31132585 0.68429995 6.4302952e-39
0.40084109 -0.30680367 0.68492997 5.6938148e-39
0.40051949 -0.30446756 0.6855092 5.6938148e-39
0.3998895 -0.3015826 0.68529731 6.0611568e-39
0.39896834 -0.29708415 0.68561411 6.2448278e-39
0.39953929 -0.29922885 0.68592948 6.2448278e-39
0.39837 -0.29527539 0.6848982 6.2448278e-39
0.39803189 -0.29258209 0.68596077 6.2448278e-39
0.39828044 -0.29042393 0.68416053 6.2448278e-39
0.39921337 -0.28904808 0.68517101 6.2448278e-39
0.40014642 -0.28767234 0.68618137 6.2448278e-39
0.40247649 -0.28603405 0.68468463 6.2448278e-39
0.40419444 -0.28420874 0.68564749 8.5504065e-39
0.40655863 -0.28288335 0.68546832 7.5359099e-39
0.40939832 -0.28131256 0.68581194 6.3373849e-39
0.41242391 -0.27963352 0.68585587 6.3381052e-39
0.41564113 -0.27784309 0.68559825 7.2629341e-39
0.41808003 -0.27650213 0.68538225 7.8182701e-39
0.42109856 -0.27521747 0.68552828 7.8179086e-39
0.42432973 -0.27407101 0.68533677 7.4487687e-39
0.42651922 -0.27320313 0.68561399 6.5221349e-39
0.42865092 -0.27262831 0.68467623 6.4302994e-39
0.43092203 -0.27145845 0.68616903 6.8005211e-39
0.43307418 -0.27087653 0.6852293 6.2451879e-39
0.4352386 -0.27029121 0.68428439 6.522495e-39
0.43671796 -0.26959598 0.68580586 6.4303008e-39
0.43971363 -0.26877075 0.68572164 6.523937e-39
0.44321373 -0.26781291 0.68572319 6.3373849e-39
0.44536373 -0.26717088 0.68487334 6.2451879e-39
0.44654173 -0.26697701 0.68691337 6.2448278e-39
0.44864261 -0.39762384 0.68877971 6.2448278e-39
0.44533229 -0.39201677 0.68885583 6.3370234e-39
0.42427835 -0.38540381 0.68983078 1.0578345e-38
0.44222295 -0.3866173 0.68863976 6.892344e-39
0.43934578 -0.38145173 0.68807352 7.3522417e-39
0.43662 -0.37669206 0.68859428 8.7340859e-39
0.43391067 -0.37196153 0.68911409 1.0021941e-38
0.43113124 -0.3669225 0.6884582 1.0574034e-38
0.42857897 -0.36210442 0.68744349 1.0852416e-38
0.42627907 -0.35804784 0.68866313 1.0944971e-38
0.42405742 -0.35407585 0.68976784 1.103932e-38
0.42401659 -0.35351425 0.68719506 1.103932e-38
0.4220168 -0.3497541 0.68794119 1.1135464e-38
0.42003053 -0.34601617 0.68867779 1.1136899e-38
0.4180544 -0.34229726 0.68941057 1.1137973e-38
0.41601801 -0.33799475 0.68760884 1.1139042e-38
0.41397798 -0.33423561 0.68848038 1.0767391e-38
0.41194916 -0.33049697 0.68934709 1.0115929e-38
0.41163582 -0.32967114 0.68723196 1.0024811e-38
0.40961289 -0.32594675 0.6881057 9.2850989e-39
0.40754026 -0.32218933 0.68908173 8.9159619e-39
0.43305594 -0.32101861 0.68772525 7.2582524e-39
0.40514934 -0.31760663 0.68796796 8.0872858e-39
0.40311897 -0.31390673 0.68890309 7.167133e-39
0.40105817 -0.3099077 0.68856883 5.2364296e-39
0.40069535 -0.30725446 0.68788081 4.5925035e-39
0.40026814 -0.30414903 0.68864739 5.5101424e-39
0.39984185 -0.30105045 0.68941236 6.1529923e-39
0.39957184 -0.29847586 0.68855655 6.2448278e-39
0.39925426 -0.29586083 0.68778849 6.2448278e-39
0.39876655 -0.29272065 0.68866712 6.2448278e-39
0.39809656 -0.28981847 0.68853307 6.2448278e-39
0.39876252 -0.28792799 0.68867433 6.2448278e-39
0.40077505 -0.28626111 0.68863124 6.2448278e-39
0.40239841 -0.28522706 0.68751192 6.2448278e-39
0.40382686 -0.2844511 0.68853474 8.4582123e-39
0.40662301 -0.28289035 0.68803215 7.3518802e-39
0.40962633 -0.2812238 0.68808287 6.8941628e-39
0.41247433 -0.27964848 0.68843317 7.4498632e-39
0.41516274 -0.27816576 0.68908602 8.189575e-39
0.41802502 -0.27656892 0.68857837 7.5413259e-39
0.41947991 -0.27577853 0.68961763 8.8374639e-39
0.42166662 -0.27458709 0.68853694 7.8193519e-39
0.42453849 -0.2731846 0.68895614 8.2824895e-39
0.42758581 -0.27235118 0.68822861 7.9115476e-39
0.43042892 -0.27147529 0.68831182 7.2632999e-39
0.43338236 -0.2706621 0.68823528 7.5416902e-39
0.43511975 -0.27028191 0.68974686 9.2120226e-39
0.43683359 -0.26971814 0.68824494 7.5456601e-39
0.4397307 -0.2689575 0.68875694 8.0087991e-39
0.44224969 -0.26825789 0.68859571 6.8012469e-39
0.44478163 -0.2675547 0.68843412 6.245548e-39
0.44732618 -0.26684797 0.68827176 6.2448278e-39
0.4494741 -0.3989166 0.69006187 6.2448278e-39
0.44625831 -0.39388984 0.69258022 6.2448278e-39
0.4455508 -0.39271843 0.69111228 6.2448278e-39
0.44235951 -0.38724333 0.69103038 7.1696455e-39
0.43958247 -0.38242555 0.69160974 7.9983216e-39
0.43686378 -0.37767714 0.69212061 9.285459e-39
0.43407798 -0.37262571 0.69145846 1.0205253e-38
0.4313035 -0.36759484 0.690799 1.0574033e-38
0.42871672 -0.3632623 0.69247079 1.0852056e-38
0.42854542 -0.36258924 0.69013363 1.0852416e-38
0.42625117 -0.35854083 0.69134152 1.0945329e-38
0.42410147 -0.3546381 0.69232351 1.1038961e-38
0.42206538 -0.35032576 0.69050002 1.1135106e-38
0.4200834 -0.34659469 0.69122845 1.1136899e-38
0.4181115 -0.34288251 0.69195324 1.1137973e-38
0.41614956 -0.33918905 0.69267434 1.1138326e-38
0.41608828 -0.33859712 0.69013971 1.1138683e-38
0.41413206 -0.33491564 0.69086516 1.0767032e-38
0.41168565 -0.33201528 0.69197237 9.9333326e-39
0.41024595 -0.32760537 0.69231051 9.930104e-39
0.40993124 -0.32677853 0.69020915 9.7453554e-39
0.40787125 -0.32303363 0.69115949 9.2843814e-39
0.40566289 -0.31889188 0.69105762 8.5478996e-39
0.40346378 -0.31476766 0.69095778 7.3511641e-39
0.40144688 -0.3110916 0.69188046 6.2462641e-39
0.40055048 -0.30770281 0.69081521 5.9693213e-39
0.40012455 -0.30460551 0.69157648 6.1529923e-39
0.39969966 -0.30151504 0.69233608 6.2448278e-39
0.39934593 -0.29819402 0.69163549 6.2448278e-39
0.39888614 -0.29410344 0.69112742 6.2448278e-39
0.3990981 -0.29564416 0.69074702 6.2448278e-39
0.39856863 -0.2917957 0.69169712 6.2448278e-39
0.43964741 -0.29349115 0.69285822 7.8193533e-39
0.39816326 -0.28805661 0.69242465 6.2448278e-39
0.39885134 -0.28724813 0.69118977 6.2448278e-39
0.40071377 -0.28625393 0.69185716 6.2448278e-39
0.40251559 -0.28520894 0.69263965 6.3370234e-39
0.40380758 -0.28449151 0.69167805 9.1035733e-39
0.40616634 -0.28318 0.69150043 7.3515214e-39
0.40826303 -0.28201514 0.69047254 6.6157711e-39
0.4096837 -0.28122401 0.69152546 8.560877e-39
0.41251159 -0.27965206 0.69102252 9.9499338e-39
0.41598633 -0.27771914 0.69163716 1.0319071e-38
0.41840196 -0.27637601 0.69145745 1.0134319e-38
0.42127964 -0.27477393 0.69183153 9.7637362e-39
0.42353585 -0.27351612 0.69196194 9.6711805e-39
0.42516741 -0.2726067 0.69184482 9.7640964e-39
0.42791814 -0.27214712 0.69117999 8.8374611e-39
0.43055618 -0.27159265 0.69072628 9.8566535e-39
0.4334158 -0.27084237 0.69123966 1.0505628e-38
0.43628821 -0.2700887 0.69175541 1.0599263e-38
0.43931353 -0.269238 0.69139612 9.2094891e-39
0.44274792 -0.26831776 0.69170862 6.5228538e-39
0.44576243 -0.26748845 0.69164133 6.2448292e-39
0.44878793 -0.39755183 0.69503486 6.2448292e-39
0.44726998 -0.39535445 0.69356191 6.2448278e-39
0.4427855 -0.38839081 0.69424236 7.2621985e-39
0.43981826 -0.38339484 0.69512737 8.3667411e-39
0.43702555 -0.37833059 0.69445962 9.4694902e-39
0.43424463 -0.37328738 0.69379395 1.0297089e-38
0.43156055 -0.36859831 0.69429255 1.0481839e-38
0.42889249 -0.36393768 0.69479036 1.0851697e-38
0.4262234 -0.3590315 0.69400722 1.0945329e-38
0.42414534 -0.35519791 0.69486773 1.1038601e-38
0.42219007 -0.3514874 0.69553643 1.1134747e-38
0.42211372 -0.35089487 0.69304758 1.1135106e-38
0.42013609 -0.34717065 0.69376791 1.1136899e-38
0.40164456 -0.34453368 0.69470435 6.2448278e-39
0.41817605 -0.34347212 0.69447166 1.1229808e-38
0.41627443 -0.33983594 0.69508892 1.104649e-38
0.41438168 -0.33621687 0.69570339 1.067699e-38
0.41419744 -0.33551413 0.6933918 1.0768108e-38
0.41229838 -0.33189625 0.69403106 1.0393949e-38
0.4104206 -0.32830644 0.69464612 9.931899e-39
0.40845978 -0.32465255 0.69541824 9.1021468e-39
0.40820974 -0.32388288 0.69321597 9.1932648e-39
0.4061743 -0.32017189 0.69413483 7.9954503e-39
0.40397891 -0.31605381 0.6940273 7.0742199e-39
0.40213752 -0.31281197 0.69595706 6.3373821e-39
0.40179271 -0.31195313 0.69392186 6.2459054e-39
0.40040639 -0.30814856 0.69373333 6.2448278e-39
0.39998183 -0.30505943 0.69448918 6.2448278e-39
0.39955822 -0.30197704 0.69524348 6.2448278e-39
0.39920545 -0.29866546 0.69454563 6.2448278e-39
0.39885259 -0.29535455 0.69385022 6.2448278e-39
0.39784327 -0.28878281 0.69432783 6.2448278e-39
0.39885551 -0.28786558 0.69384497 6.2448278e-39
0.40056306 -0.28675449 0.69478095 6.2448278e-39
0.40227199 -0.28564286 0.69571942 6.2448292e-39
0.40377596 -0.28452012 0.69482726 8.5504065e-39
0.40646988 -0.28300768 0.6949383 7.1671316e-39
0.40962419 -0.28125381 0.6947121 6.6146907e-39
0.41235796 -0.27973354 0.69480562 7.0774653e-39
0.41519329 -0.27815738 0.69431329 7.6327971e-39
0.41804624 -0.27657083 0.69381803 8.1888505e-39
0.41947657 -0.27577096 0.69488513 6.984548e-39
0.42145261 -0.27467123 0.69416362 7.8179072e-39
0.42433548 -0.27306259 0.69454938 7.3547682e-39
0.42596591 -0.27215379 0.69443673 7.5402399e-39
0.42793971 -0.27148223 0.69376194 9.2073226e-39
0.43100381 -0.27089405 0.69390821 9.9488492e-39
0.43408495 -0.27030265 0.69405532 1.0042127e-38
0.43718344 -0.26970792 0.6942032 8.5601554e-39
0.44029927 -0.26910979 0.69435191 7.0785485e-39
0.44285136 -0.26844251 0.6941371 6.2448292e-39
0.44576353 -0.26767859 0.69466269 6.2448278e-39
0.44751865 -0.26710391 0.69316703 6.2448278e-39
0.44394082 -0.3907243 0.69884861 7.0752975e-39
0.44408166 -0.39037132 0.69604969 7.0763751e-39
0.44008023 -0.38413858 0.69729096 8.4582179e-39
0.43738931 -0.37942207 0.69775295 9.5609655e-39
0.43457973 -0.37435639 0.69713926 1.029673e-38
0.43191868 -0.36969286 0.69760102 1.0481839e-38
0.42913473 -0.36467314 0.69699079 1.0759862e-38
0.42666048 -0.36046308 0.69848561 1.0945329e-38
0.42636251 -0.35967451 0.696383 1.0945329e-38
0.42429549 -0.35585344 0.69722325 1.1038242e-38
0.4223727 -0.35217524 0.69783616 1.1134387e-38
0.42045915 -0.34851462 0.69844604 1.113726e-38
0.4202733 -0.34782147 0.69615299 1.1137258e-38
0.41836572 -0.34417307 0.69676667 1.1137973e-38
0.41646707 -0.3405419 0.69737744 1.104649e-38
0.41457754 -0.33692795 0.69798517 1.0677708e-38
0.41269684 -0.33333111 0.69859016 1.0674122e-38
0.41249806 -0.33261502 0.69631481 1.0579774e-38
0.41062319 -0.32903016 0.69692343 1.0117365e-38
0.40864903 -0.32536674 0.69771665 9.0113889e-39
0.40658575 -0.32136005 0.69736588 7.5355554e-39
0.40449196 -0.31733477 0.69708455 6.5210531e-39
0.40248126 -0.31366825 0.69798613 6.2448292e-39
0.4004254 -0.30969253 0.69766498 6.2448278e-39
0.40005136 -0.30705053 0.69701064 6.2448278e-39
0.39962861 -0.30397281 0.69776052 6.2448278e-39
0.39889407 -0.29802006 0.69642615 6.2448278e-39
0.39709717 -0.29186934 0.69698811 6.2448278e-39
0.39780676 -0.28955385 0.69730681 6.2448278e-39
0.39956945 -0.2883054 0.69786537 6.2448278e-39
0.40092111 -0.28708252 0.69722843 6.2448278e-39
0.40296754 -0.28566548 0.69800752 7.6281027e-39
0.40432954 -0.2844342 0.69736928 1.1409152e-38
0.40600577 -0.28340754 0.6979425 7.8124926e-39
0.44626355 -0.28241059 0.69714284 7.1631869e-39
0.4100894 -0.28099191 0.69784564 6.2448278e-39
0.41272864 -0.27952409 0.6976648 6.2451879e-39
0.41547054 -0.27799615 0.69776905 6.2451879e-39
0.41822389 -0.27646056 0.69787645 6.3370248e-39
0.42108351 -0.27486745 0.69739693 6.522495e-39
0.42350858 -0.2735157 0.69723588 7.3569389e-39
0.42513245 -0.27261057 0.69712794 8.5605197e-39
0.42757896 -0.27124685 0.69696546 1.0134319e-38
0.43101835 -0.27023166 0.6964854 9.0225727e-39
0.43409264 -0.26963973 0.6966393 7.9119077e-39
0.43718404 -0.26904452 0.69679409 6.9856326e-39
0.44029272 -0.26844591 0.69694972 6.4302994e-39
0.44341892 -0.26784396 0.69710624 6.2448278e-39
0.44656271 -0.26723868 0.6972636 6.2448278e-39
0.44714218 -0.26839834 0.69891715 9.2761278e-39
0.44416302 -0.39142448 0.70105988 7.07458e-39
0.44056088 -0.38533497 0.70037973 8.3649461e-39
0.43778628 -0.3805418 0.70097524 9.836472e-39
0.43498278 -0.3754862 0.70035625 1.029673e-38
0.43232679 -0.37083021 0.70080584 1.0390002e-38
0.42968756 -0.36620283 0.70125288 1.0759143e-38
0.42941111 -0.36543876 0.69912612 1.0759502e-38
0.4269585 -0.36125004 0.70058 1.0945331e-38
0.4248364 -0.35738122 0.70150548 1.1037884e-38
0.42456037 -0.35661304 0.69937783 1.0946407e-38
0.42257589 -0.35288006 0.70009184 1.1134028e-38
0.42064422 -0.34920514 0.7007305 1.113726e-38
0.41874284 -0.34556699 0.70133102 1.1137973e-38
0.4185546 -0.34487128 0.69905305 1.1137973e-38
0.41675481 -0.34159568 0.70079303 1.1046132e-38
0.41477263 -0.33763641 0.70025861 1.0770261e-38
0.41289496 -0.33404452 0.7008571 1.0861023e-38
0.4109965 -0.33044314 0.70150357 1.086031e-38
0.41081178 -0.32973945 0.69921499 1.0396463e-38
0.40883756 -0.32607812 0.70000643 9.3830413e-39
0.40687376 -0.32243603 0.70079362 8.0919563e-39
0.40482265 -0.3184523 0.70043945 6.7997938e-39
0.40277869 -0.31448263 0.7000885 6.4295777e-39
0.40082657 -0.31087887 0.70089865 6.2448292e-39
0.42175588 -0.30921498 0.70128626 6.7990819e-39
0.3999095 -0.30749539 0.69989383 6.2448278e-39
0.39869022 -0.30114502 0.69942492 6.2448278e-39
0.39689904 -0.2950052 0.69997841 6.2448278e-39
0.39623344 -0.29175371 0.70116377 6.2448278e-39
0.39810836 -0.29010153 0.70045727 6.2448278e-39
0.40004313 -0.28859684 0.70053154 6.2448278e-39
0.4012813 -0.28751403 0.70009822 6.2448278e-39
0.40332174 -0.28599459 0.7004472 8.4578536e-39
0.40659532 -0.28344983 0.70053113 7.0745786e-39
0.40845096 -0.28201312 0.70067406 6.2448278e-39
0.40966758 -0.28122392 0.69987917 6.2448278e-39
0.4123033 -0.27975389 0.70056832 6.2448278e-39
0.41547513 -0.2779859 0.70036602 6.2448278e-39
0.41813305 -0.27650177 0.70106119 6.4303008e-39
0.41973418 -0.27560928 0.70096052 6.9877948e-39
0.42178944 -0.27446452 0.70054168 8.3764872e-39
0.42376086 -0.27336475 0.70070654 1.0690376e-38
0.4253805 -0.27246198 0.70060468 1.0689291e-38
0.42736459 -0.27135515 0.70077115 8.6516279e-39
0.42945206 -0.27019241 0.70034939 7.2629369e-39
0.44863105 -0.27016938 0.69913816 9.183572e-39
0.45012355 -0.27194464 0.69935989 9.183572e-39
0.43119317 -0.26935112 0.70007825 6.893437e-39
0.434104 -0.2686514 0.70049191 6.4299407e-39
0.43718487 -0.26805541 0.70065689 6.2451879e-39
0.44028628 -0.26778507 0.69953561 6.2448292e-39
0.44340533 -0.26718265 0.69969904 6.2448278e-39
0.44506657 -0.39326322 0.70473504 6.7983561e-39
0.44461536 -0.39234489 0.70289969 6.8905503e-39
0.4416889 -0.38763577 0.704974 8.6454832e-39
0.44123513 -0.38671398 0.70314521 8.4596556e-39
0.43804979 -0.38128501 0.70311403 9.7471505e-39
0.43538359 -0.37660986 0.70355588 9.838986e-39
0.43273318 -0.37196261 0.70399666 1.0114495e-38
0.42998081 -0.36698103 0.70334387 1.0667306e-38
0.42740342 -0.36242548 0.70370853 1.0944971e-38
0.42511153 -0.35814691 0.7036261 1.1037884e-38
0.423132 -0.35442221 0.70432705 1.1040756e-38
0.42285442 -0.35365236 0.70221281 1.1041475e-38
0.42088246 -0.34994233 0.70291674 1.1137261e-38
0.41893041 -0.34626007 0.70360047 1.1137973e-38
0.417041 -0.34264421 0.70419168 1.1138686e-38
0.4151606 -0.33904541 0.7047801 1.1139041e-38
0.41496694 -0.33834219 0.70252359 1.0954652e-38
0.41309237 -0.33475536 0.70311558 1.1046489e-38
0.41118032 -0.33114409 0.70378375 1.1139046e-38
0.40921253 -0.32749289 0.70456016 1.0680232e-38
0.40902537 -0.32678682 0.70228761 1.0031995e-38
0.4070648 -0.32314974 0.70306736 9.2018856e-39
0.40511435 -0.31953162 0.70384312 8.2792245e-39
0.40310445 -0.3155959 0.70343482 7.1700126e-39
0.40057611 -0.31054461 0.70395041 6.2448278e-39
0.39882129 -0.30645102 0.7044282 6.2448278e-39
0.3996371 -0.30850089 0.7029922 6.2448278e-39
0.39848763 -0.30425167 0.70240611 6.2448278e-39
0.39670217 -0.29812276 0.70295131 6.2448278e-39
0.39559326 -0.29286748 0.70361102 6.2448278e-39
0.39692983 -0.29176757 0.70341951 6.2448278e-39
0.39860845 -0.29046577 0.70349884 6.2448278e-39
0.40062881 -0.28895688 0.70385838 6.2448278e-39
0.40163374 -0.28773439 0.70209605 6.2448278e-39
0.40365547 -0.2863912 0.70325774 8.2738224e-39
0.40662283 -0.28400028 0.70383042 6.6136061e-39
0.4082976 -0.28253961 0.70353937 6.2448278e-39
0.41002822 -0.2811105 0.70316279 6.2448278e-39
0.41274858 -0.27949333 0.70283723 6.2448278e-39
0.41547841 -0.27797291 0.7029531 6.3373849e-39
0.41813281 -0.27649409 0.70364881 8.4686856e-39
0.42133293 -0.27471042 0.70345592 1.0320151e-38
0.42374605 -0.27336532 0.70331049 9.3931544e-39
0.42562535 -0.27231517 0.70406318 7.3551312e-39
0.42770052 -0.27115926 0.70365047 6.4302994e-39
0.42913479 -0.2703563 0.7047233 6.2448292e-39
0.43096185 -0.26934135 0.70345592 6.2448278e-39
0.4332588 -0.26810199 0.70442677 6.2448278e-39
0.43718582 -0.26707232 0.70449638 6.2448292e-39
0.44027984 -0.26712722 0.70210987 6.2448292e-39
0.44487232 -0.26866654 0.70376956 9.1842923e-39
0.4402734 -0.26647234 0.7046724 6.2448292e-39
0.44339174 -0.26652431 0.70228004 6.2448278e-39
0.44551671 -0.39417928 0.7065661 6.7065206e-39
0.44214141 -0.38855541 0.70679855 8.5547253e-39
0.43856159 -0.38250807 0.70612037 9.7528972e-39
0.43578267 -0.37772864 0.70674151 9.5670696e-39
0.43300581 -0.37271696 0.70611006 9.6556737e-39
0.43041888 -0.36814341 0.70646715 1.0666947e-38
0.42784655 -0.36359596 0.70682389 1.0944612e-38
0.42552233 -0.35929048 0.70679331 1.1037884e-38
0.42340875 -0.3551895 0.70643431 1.1040398e-38
0.42144179 -0.35148764 0.70712531 1.1136183e-38
0.42116266 -0.35071623 0.70502436 1.1136901e-38
0.41934395 -0.34741667 0.70676553 1.1137974e-38
0.41725338 -0.34336025 0.70640868 1.1230522e-38
0.41535348 -0.339746 0.70702833 1.1231236e-38
0.41348487 -0.33616906 0.70760769 1.1324148e-38
0.41328895 -0.33546346 0.70536578 1.1139401e-38
0.41136354 -0.33184248 0.70605516 1.1233037e-38
0.40939897 -0.32819629 0.70682418 1.1143359e-38
0.40753013 -0.32464463 0.70744276 1.0867856e-38
0.40649965 -0.32251778 0.7066319 9.4813452e-39
0.40537959 -0.32031047 0.70597708 9.2044037e-39
0.40359962 -0.31685287 0.70646846 7.9100888e-39
0.40164298 -0.31297395 0.7059828 6.3373821e-39
0.40048999 -0.31035089 0.70669937 6.2448292e-39
0.39924842 -0.30737787 0.70627832 6.2448278e-39
0.39822263 -0.30487362 0.7067802 6.2448278e-39
0.39698577 -0.30191204 0.7063601 6.2448278e-39
0.39596587 -0.29942214 0.70686185 6.2448278e-39
0.39654681 -0.29880887 0.70652384 6.8927153e-39
0.39473462 -0.29513174 0.70644128 6.2448278e-39
0.39529395 -0.29387587 0.70675027 6.2448278e-39
0.39721137 -0.29220966 0.70622319 6.2448278e-39
0.39889872 -0.29092705 0.70689154 6.2448278e-39
0.4005419 -0.28949422 0.70660853 6.2448278e-39
0.40219098 -0.28805637 0.70632529 6.7983533e-39
0.40362638 -0.28684288 0.70642197 8.4578536e-39
0.40550828 -0.28516394 0.70575476 7.1667728e-39
0.40674075 -0.28425938 0.70707792 6.2448292e-39
0.40847662 -0.28263971 0.70582116 6.2448278e-39
0.41008797 -0.28134146 0.70650798 6.2448278e-39
0.41222063 -0.27975255 0.70631772 6.3373849e-39
0.41362083 -0.27896464 0.70737827 7.7282409e-39
0.4157337 -0.27780128 0.70638967 8.839266e-39
0.41811886 -0.27647829 0.70624405 1.0412348e-38
0.41971588 -0.27559251 0.70614654 1.0411625e-38
0.42176685 -0.27445695 0.705733 8.6523482e-39
0.42372963 -0.27336276 0.70590514 6.6157697e-39
0.42479783 -0.27276522 0.70670569 6.3373835e-39
0.42722458 -0.27141601 0.70656365 6.2448278e-39
0.42965925 -0.27005887 0.70642549 6.2448278e-39
0.43128949 -0.26915014 0.70633304 6.2448278e-39
0.43364596 -0.26783484 0.70677739 6.2448278e-39
0.43508697 -0.26702815 0.70785463 6.2448278e-39
0.43718642 -0.26642084 0.70704067 6.2448292e-39
0.44026703 -0.26582038 0.70722336 6.2448278e-39
0.44641387 -0.39600497 0.71021515 6.7061618e-39
0.44596583 -0.3950932 0.70839274 6.7061618e-39
0.44304353 -0.39038813 0.71043479 7.9086441e-39
0.44259298 -0.38947284 0.70861888 8.3703369e-39
0.43969595 -0.38480926 0.71065289 9.7579264e-39
0.43924302 -0.38389051 0.70884341 1.003415e-38
0.43618551 -0.37884697 0.7099005 9.2944358e-39
0.43343687 -0.37386626 0.70922816 8.7373159e-39
0.4308551 -0.3693009 0.70957732 1.0391439e-38
0.42828739 -0.36476034 0.70992297 1.0852416e-38
0.42593139 -0.36042905 0.70994675 1.1037884e-38
0.42382208 -0.35633552 0.70958149 1.1039679e-38
0.42172015 -0.35225654 0.70921922 1.1135823e-38
0.41976553 -0.34857732 0.70990038 1.1137617e-38
0.41767913 -0.34452805 0.70953739 1.1046133e-38
0.4156 -0.34049314 0.70917737 1.1138325e-38
0.41368002 -0.33687198 0.70984131 1.0953576e-38
0.41184139 -0.33333302 0.71038079 1.0310011e-38
0.41154611 -0.33253825 0.708318 1.1049006e-38
0.40986365 -0.3294121 0.70988715 1.0587677e-38
0.40789199 -0.32550341 0.70939636 1.0589475e-38
0.40610778 -0.32203668 0.70987982 8.8327486e-39
0.40433139 -0.31858516 0.71036124 7.3544011e-39
0.40327284 -0.31644186 0.7096144 6.8923496e-39
0.40133852 -0.31219155 0.71038741 6.2451879e-39
0.40219569 -0.31428081 0.70890188 6.522851e-39
0.40050715 -0.31024846 0.70925504 6.2448278e-39
0.39886236 -0.30626249 0.70954216 6.2448278e-39
0.39967448 -0.3083024 0.70812368 6.2448278e-39
0.40779623 -0.30746353 0.70890439 6.2448278e-39
0.39784059 -0.30376834 0.71003753 6.2448278e-39
0.40217113 -0.30430067 0.71088117 6.7061604e-39
0.39660829 -0.3008177 0.70961607 6.2448278e-39
0.39540789 -0.2978971 0.7091428 6.2448278e-39
0.39483181 -0.29553461 0.70972794 6.3377436e-39
0.39760047 -0.29221463 0.70916909 6.2451879e-39
0.40037054 -0.28995991 0.70949274 6.2448278e-39
0.40229109 -0.28838074 0.71002388 7.6284628e-39
0.40397191 -0.28686321 0.70926601 8.7351551e-39
0.40559781 -0.2854991 0.70946926 6.6139648e-39
0.40722895 -0.28413048 0.70967299 6.2448278e-39
0.40877259 -0.28280643 0.70960504 6.3370248e-39
0.41022921 -0.28152663 0.70926702 6.522495e-39
0.41218534 -0.27992052 0.70980048 8.9318232e-39
0.41519457 -0.27806628 0.70985675 1.0319791e-38
0.41801319 -0.27650571 0.70940804 8.1895708e-39
0.41941971 -0.27571422 0.71047294 6.4302994e-39
0.42155576 -0.27453786 0.70949066 6.4299393e-39
0.42396212 -0.27320313 0.70935225 6.3370248e-39
0.42557332 -0.27230939 0.70925957 6.2448292e-39
0.42764473 -0.27116334 0.7088511 6.2448278e-39
0.4290691 -0.27036184 0.70992619 6.2448278e-39
0.43089664 -0.26935831 0.7086646 6.2448278e-39
0.43314683 -0.26809996 0.70969522 6.2448278e-39
0.4364292 -0.26627478 0.70951474 6.2448278e-39
0.41158122 -0.26332796 0.71068984 6.2448278e-39
0.44686079 -0.39691454 0.71203327 6.6143263e-39
0.44730675 -0.39782202 0.71384704 6.5214132e-39
0.44349295 -0.39130127 0.71224648 7.3544011e-39
0.44006085 -0.38564247 0.71259475 8.8334646e-39
0.43660033 -0.37997365 0.71302408 8.4628884e-39
0.43381333 -0.37496066 0.71241736 8.3681775e-39
0.43124881 -0.37041447 0.71273553 9.931183e-39
0.42870343 -0.36589831 0.71304619 1.0852415e-38
0.42620289 -0.36118484 0.71203995 1.0946048e-38
0.42424834 -0.35749024 0.71269119 1.103932e-38
0.4221631 -0.35343012 0.71230209 1.1134747e-38
0.4202404 -0.34978265 0.71292716 1.113726e-38
0.41815943 -0.34574234 0.71255934 1.0860311e-38
0.41626555 -0.34213859 0.71316266 1.0857797e-38
0.41590512 -0.34129161 0.71121997 1.0952501e-38
0.41421095 -0.33813739 0.71277535 1.0121315e-38
0.41219908 -0.33418196 0.71233082 9.0178517e-39
0.41040123 -0.33068955 0.71281093 9.3841189e-39
0.40861261 -0.3272137 0.7132867 9.7503875e-39
0.40825284 -0.32635981 0.71134424 1.0307865e-38
0.40665111 -0.32332462 0.71279162 9.2894135e-39
0.40469569 -0.31944758 0.71229929 7.7221018e-39
0.40300113 -0.31607723 0.71264917 6.2451879e-39
0.40176111 -0.31310827 0.71222448 6.2448292e-39
0.40073466 -0.31060302 0.7127161 6.2448278e-39
0.39949945 -0.3076455 0.71229231 6.2448278e-39
0.39821216 -0.30425894 0.71324801 6.2448278e-39
0.39709866 -0.30141363 0.71262264 6.2448278e-39
0.41804293 -0.30113792 0.71338212 7.8189918e-39
0.39575434 -0.29770833 0.71240461 6.2448278e-39
0.39630172 -0.29912141 0.71272993 6.2448278e-39
0.39495966 -0.29542199 0.71251261 6.2448278e-39
0.39496744 -0.29342842 0.71249807 6.4302994e-39
0.39669088 -0.29219475 0.71247858 6.2448278e-39
0.39883798 -0.29072857 0.71215928 6.2448278e-39
0.40081331 -0.28920785 0.71258157 7.2593258e-39
0.40358791 -0.28717527 0.71249366 7.9972398e-39
0.40566885 -0.28560919 0.71233898 6.5214118e-39
0.40724531 -0.28431016 0.7130574 6.2451879e-39
0.40938133 -0.28255075 0.71198463 7.7282409e-39
0.41030341 -0.28187418 0.71297598 1.0691096e-38
0.41197759 -0.28041607 0.71270305 1.1246789e-38
0.41365778 -0.27895278 0.71242964 1.0782564e-38
0.41597566 -0.27760774 0.71237576 7.7264388e-39
0.41834897 -0.27629119 0.71224552 6.8937985e-39
0.4194026 -0.2756983 0.71304137 8.3768501e-39
0.42134562 -0.2746177 0.71322209 8.7470718e-39
0.42338982 -0.27348655 0.71282667 8.1902953e-39
0.42499417 -0.2725966 0.71274006 8.0973794e-39
0.42741203 -0.27125639 0.7126081 8.0051907e-39
0.42958266 -0.27005988 0.71162874 7.2661866e-39
0.43101168 -0.26926035 0.71269703 9.2098478e-39
0.43391821 -0.26765221 0.71225059 8.0981038e-39
0.43684265 -0.26603311 0.71180207 6.3377436e-39
0.43828911 -0.26523101 0.71287012 6.2448278e-39
0.44758338 -0.39856374 0.71591485 6.3370234e-39
0.44381422 -0.39208949 0.71425122 7.2622097e-39
0.44408047 -0.39282316 0.71633375 7.3551256e-39
0.44060332 -0.3871249 0.71674961 6.8923482e-39
