# .PCD v0.7 - Point Cloud Data file format
VERSION 0.7
FIELDS x y z rgb
SIZE 4 4 4 4
TYPE F F F F
COUNT 1 1 1 1
WIDTH 1005
HEIGHT 1
VIEWPOINT 0 0 0 1 0 0 0
POINTS 1005
DATA ascii
0.62005019 -0.28361142 0.64903152 2.8599577e-39
0.61728859 -0.27938926 0.6497122 2.8599577e-39
0.61897856 -0.28136104 0.65032619 2.8599577e-39
0.6156016 -0.27742094 0.64909929 2.8599577e-39
0.61391753 -0.27545601 0.64848751 2.8599577e-39
0.61106658 -0.27178052 0.65064216 2.8599577e-39
0.60855883 -0.26885504 0.64972687 2.9517932e-39
0.6183961 -0.26868328 0.65007925 8.206165e-39
0.60521626 -0.26496208 0.6485222 3.4127657e-39
0.6068908 -0.26690918 0.64911819 2.9517932e-39
0.60335237 -0.26264682 0.64949912 7.2842213e-39
0.60081327 -0.25944608 0.64999419 1.1155677e-38
0.58445603 -0.25778568 0.64875448 1.087945e-38
0.59851432 -0.256643 0.64886558 1.1708845e-38
0.59612799 -0.25353146 0.64919144 1.1708845e-38
0.59374928 -0.25042951 0.64951897 1.1708845e-38
0.59062135 -0.24641754 0.64947176 1.1708845e-38
0.59222895 -0.248576 0.64877063 1.1708845e-38
0.58902204 -0.24426739 0.65017009 1.1524454e-38
0.58666599 -0.24146433 0.64916849 1.1339701e-38
0.58428323 -0.23865254 0.64820904 1.1524454e-38
0.5741629 -0.23418662 0.64967132 2.8599577e-39
0.58094651 -0.23432444 0.64983064 1.0417022e-38
0.58252537 -0.23618732 0.65046871 1.0047879e-38
0.57934994 -0.23245545 0.64921975 1.0970558e-38
0.57560408 -0.22847612 0.64873224 1.1616649e-38
0.57747453 -0.23046313 0.64897567 1.1432257e-38
0.57381934 -0.22628041 0.64972234 1.1431898e-38
0.57141083 -0.22359735 0.64975423 1.1708845e-38
0.56848222 -0.22022569 0.65003693 1.1708845e-38
0.56579816 -0.21732607 0.64956808 1.1708845e-38
0.56312281 -0.21443582 0.64910078 1.1708845e-38
0.55979931 -0.21045935 0.64951652 1.1708845e-38
0.56134504 -0.21251521 0.64879024 1.1708845e-38
0.55839372 -0.20846745 0.6500625 1.1708845e-38
0.55729449 -0.20684335 0.64885598 1.1708845e-38
0.55380523 -0.20201309 0.64954102 1.1247872e-38
0.54979348 -0.1964086 0.6496222 4.3347122e-39
0.54598868 -0.19032718 0.64810705 2.8599577e-39
0.54649746 -0.19089806 0.65010124 2.8599577e-39
0.54482377 -0.18744531 0.64971268 2.8599577e-39
0.54276776 -0.18304482 0.64985889 2.8599577e-39
0.54353964 -0.18495524 0.64879107 2.8599577e-39
0.54193497 -0.18132693 0.64966404 2.8599577e-39
0.54054892 -0.17846775 0.64934212 2.8599577e-39
0.53906024 -0.17523828 0.64961714 2.8599577e-39
0.53781092 -0.17277414 0.64866245 2.8599577e-39
0.53762281 -0.17029944 0.6489256 2.8599577e-39
0.56585819 -0.15241873 0.65082711 4.3343535e-39
0.56816965 -0.15115511 0.65044916 5.1641057e-39
0.57049131 -0.14988604 0.65006948 6.4537431e-39
0.63438541 -0.30453184 0.65186471 3.6901023e-39
0.63640201 -0.30466339 0.65346825 3.5057082e-39
0.63227391 -0.30145064 0.65170228 3.7823007e-39
0.63428676 -0.30158079 0.65330327 3.7823007e-39
0.6292457 -0.29734319 0.65130877 3.7823007e-39
0.63150823 -0.29846537 0.65260571 3.7823007e-39
0.6337741 -0.29958862 0.6539048 3.7823007e-39
0.62873852 -0.29535937 0.65191042 3.7823007e-39
0.6300754 -0.29544425 0.65297472 3.7823007e-39
0.62664509 -0.29230633 0.65174848 3.7823007e-39
0.62850887 -0.29274788 0.65306562 3.7823007e-39
0.62522352 -0.28930309 0.65211773 3.7823007e-39
0.6224767 -0.28622681 0.6514262 3.7823007e-39
0.62405616 -0.287292 0.65218645 3.7823007e-39
0.6204018 -0.28320032 0.65126586 3.7823007e-39
0.61891288 -0.28074408 0.65305811 2.8599577e-39
0.61626518 -0.27773547 0.65228069 2.8599577e-39
0.6136204 -0.27473277 0.65151036 2.8599577e-39
0.61106038 -0.27120814 0.65330338 2.8599577e-39
0.60843605 -0.2682296 0.65253544 2.9517932e-39
0.60494971 -0.26427281 0.65151507 4.7956848e-39
0.60669112 -0.26624918 0.65202475 3.9659339e-39
0.60331488 -0.26179522 0.65353388 1.0325926e-38
0.60159552 -0.25983649 0.65300959 1.1340067e-38
0.59913987 -0.25696164 0.65207952 1.1708845e-38
0.59678257 -0.25386637 0.65236372 1.0601414e-38
0.59363973 -0.24984117 0.65232056 1.1247505e-38
0.5952034 -0.25171375 0.65301412 1.0140076e-38
0.59207839 -0.24797131 0.65162796 1.1708845e-38
0.58974034 -0.24464364 0.6532529 1.0602497e-38
0.58732295 -0.24181481 0.65233046 1.0417383e-38
0.58406436 -0.23777553 0.6524924 9.1259198e-39
0.5856905 -0.23992185 0.65174794 9.8638464e-39
0.58239555 -0.23561452 0.65329933 8.6638613e-39
0.579992 -0.23280965 0.65239561 8.109963e-39
0.57576251 -0.22804423 0.65120077 9.6787349e-39
0.57762992 -0.23002727 0.65144706 9.032641e-39
0.57500535 -0.22663346 0.65351737 9.4943422e-39
0.57229781 -0.22371177 0.65304506 1.1708845e-38
0.56869006 -0.21982755 0.65243644 1.1708845e-38
0.57049376 -0.22176817 0.65273762 1.1708845e-38
0.56689084 -0.21789174 0.65213585 1.1708845e-38
0.5633055 -0.21403435 0.65153706 1.1708845e-38
0.56509596 -0.21596067 0.65183604 1.1708845e-38
0.56153715 -0.21188262 0.65255088 1.1708845e-38
0.5589788 -0.20882371 0.65329379 1.1708845e-38
0.55607438 -0.20528331 0.6518411 1.1708845e-38
0.55369991 -0.20209052 0.65370232 1.0971288e-38
0.55143142 -0.1988287 0.65141988 7.7451952e-39
0.55252331 -0.20044202 0.65261817 8.8511714e-39
0.54961771 -0.19646975 0.65388316 3.1365418e-39
0.54812151 -0.19377039 0.65235162 2.8599577e-39
0.54661602 -0.19050598 0.65262336 2.8599577e-39
0.54494536 -0.18706003 0.65223277 2.8599577e-39
0.54366338 -0.18457465 0.65131211 2.8599577e-39
0.54289293 -0.18266833 0.65237409 2.8599577e-39
0.53997004 -0.17715883 0.6537295 2.8599577e-39
0.54117429 -0.17921902 0.65206349 2.8599577e-39
0.53943104 -0.17576712 0.65179336 2.9517932e-39
0.53796226 -0.17302057 0.65249085 2.8599577e-39
0.53733963 -0.16979502 0.65201521 2.8599577e-39
0.53798872 -0.16723847 0.65379602 2.8599577e-39
0.63810974 -0.30444697 0.65499502 3.5975451e-39
0.64002633 -0.30588335 0.65584332 2.9521575e-39
0.63562948 -0.30166757 0.65437138 3.7823007e-39
0.63697296 -0.30175442 0.65544009 3.7823007e-39
0.63418901 -0.29863727 0.65473878 3.7823007e-39
0.63141304 -0.29552913 0.65403956 3.7823007e-39
0.60451788 -0.28448826 0.65597272 2.8599577e-39
0.62004644 -0.28299469 0.65566021 2.8599577e-39
0.61834288 -0.27987725 0.65638411 2.8599577e-39
0.61633193 -0.2771911 0.65484619 2.8599577e-39
0.61372733 -0.27392653 0.65535039 2.8599577e-39
0.6120106 -0.27167022 0.65611202 2.8599577e-39
0.60851645 -0.2677058 0.65508431 3.0439874e-39
0.61026174 -0.26968604 0.65559769 2.9517932e-39
0.64164716 -0.26752722 0.65496045 3.2291115e-39
0.60677457 -0.26572949 0.65457213 7.192027e-39
0.63368064 -0.2650755 0.65606153 3.136553e-39
0.60454482 -0.26277351 0.65554625 1.0971647e-38
0.60172206 -0.2593472 0.65550065 1.1616649e-38
0.59833735 -0.25546706 0.65440446 1.0417022e-38
0.60000896 -0.25739616 0.65497577 1.1616649e-38
0.59675664 -0.25304317 0.65637076 7.741542e-39
0.59843105 -0.254969 0.6569314 8.8482525e-39
0.59363341 -0.24930356 0.65498126 8.6649431e-39
0.59519392 -0.25117201 0.65567541 6.6348329e-39
0.59207356 -0.24717207 0.65561295 9.2184798e-39
0.5897187 -0.24410769 0.6559307 8.942616e-39
0.58728343 -0.2412747 0.65503561 9.2184812e-39
0.58565128 -0.23938467 0.65445584 9.0333669e-39
0.5831778 -0.2360291 0.65627944 8.665306e-39
0.57993728 -0.23227741 0.65512365 8.3883562e-39
0.57751119 -0.22921984 0.65558851 8.4801917e-39
0.57508147 -0.22616979 0.65607423 9.0337284e-39
0.57232773 -0.22323197 0.6556648 9.6790978e-39
0.56871134 -0.21934971 0.65507126 1.023191e-38
0.57051152 -0.22128591 0.65537518 1.004752e-38
0.56691551 -0.21741827 0.65476811 1.0601053e-38
0.56335318 -0.21333826 0.65547228 1.115531e-38
0.56512421 -0.21549162 0.65446562 1.1524094e-38
0.5615899 -0.21119392 0.65647703 1.1708485e-38
0.55897105 -0.20835127 0.65596843 1.1708845e-38
0.55664921 -0.20563896 0.65507489 1.1708845e-38
0.55365556 -0.20161426 0.65642726 9.7731179e-39
0.55517358 -0.20386352 0.65438813 1.1524457e-38
0.55072069 -0.1980837 0.65505755 3.4127657e-39
0.55218709 -0.19984776 0.65574193 5.1644645e-39
0.5496937 -0.19605257 0.65644723 2.8599577e-39
0.54812592 -0.19344932 0.6559093 2.8599577e-39
0.54696387 -0.19101022 0.65482295 2.8599577e-39
0.54547608 -0.188226 0.65551776 2.8599577e-39
0.54372609 -0.18475986 0.65524298 2.8599577e-39
0.54198039 -0.18130226 0.65496892 2.8599577e-39
0.54050779 -0.17854762 0.65566158 2.8599577e-39
0.53877127 -0.17510805 0.65538788 2.8599577e-39
0.53715938 -0.17172162 0.65494764 2.8599577e-39
0.53769046 -0.16932544 0.65554696 2.8599577e-39
0.53836 -0.16618186 0.65595686 2.8599577e-39
0.55944908 -0.15236147 0.65666056 2.8599577e-39
0.5676443 -0.14866064 0.65646821 6.7310531e-39
0.57198906 -0.14767283 0.65610492 1.0786896e-38
0.54500294 -0.13396959 0.65418714 6.3626391e-39
0.64209992 -0.32147041 0.65880942 3.1369173e-39
0.62155467 -0.28598878 0.65912187 2.8599577e-39
0.61985052 -0.28286994 0.65983832 2.8599577e-39
0.61777604 -0.27901524 0.6596911 2.8599577e-39
0.61909723 -0.28137457 0.65811235 2.8599577e-39
0.61702257 -0.27751964 0.65796757 2.8599577e-39
0.61383379 -0.27312416 0.65917194 2.9517932e-39
0.6155526 -0.27538142 0.65841675 2.8599577e-39
0.61208463 -0.27114016 0.65865487 2.8599577e-39
0.60860801 -0.26718944 0.65761018 3.4127671e-39
0.61033881 -0.26916003 0.65813905 3.0439874e-39
0.60694039 -0.26497355 0.65832472 8.9437244e-39
0.60527885 -0.26276541 0.65903872 1.1708845e-38
0.6018483 -0.25885963 0.65798301 1.069361e-38
0.60356188 -0.26081061 0.65851039 1.1431897e-38
0.60020232 -0.25667143 0.65869284 8.2932767e-39
0.59686166 -0.25255495 0.65887648 8.7578632e-39
0.59856254 -0.25449079 0.65940219 8.0181331e-39
0.59518445 -0.25063241 0.65832621 8.2043265e-39
0.59284794 -0.24757254 0.65860426 8.111049e-39
0.59051019 -0.24451806 0.65889454 8.2028845e-39
0.58724409 -0.24073677 0.65772969 8.3879974e-39
0.58887571 -0.24262576 0.65831167 8.4801945e-39
0.58559906 -0.23858613 0.65848768 8.1103288e-39
0.58315349 -0.23550709 0.6589514 7.8333803e-39
0.58072984 -0.2326995 0.65807825 8.2954417e-39
0.57750785 -0.22846811 0.65955937 7.648266e-39
0.57911777 -0.23083206 0.65749747 8.4805546e-39
0.57590449 -0.22661124 0.65897959 8.1103288e-39
0.57261401 -0.22286668 0.65794224 8.2032447e-39
0.57430393 -0.22475761 0.65840071 8.3876373e-39
0.57068866 -0.22087525 0.65779507 7.740463e-39
0.56694025 -0.21694671 0.65738994 6.4479151e-39
0.56832528 -0.21799262 0.65910798 7.0947321e-39
0.56519687 -0.2148048 0.65834957 8.0181289e-39
0.5625127 -0.21169148 0.65923393 1.0324467e-38
0.55985355 -0.20883325 0.65877545 1.1616649e-38
0.55659842 -0.20515448 0.65780073 1.1708845e-38
0.55808657 -0.20693398 0.65847075 1.1708844e-38
0.55361134 -0.20113997 0.65914071 8.1136148e-39
0.55510229 -0.20314398 0.65847039 1.0787257e-38
0.55228859 -0.19943635 0.65826344 3.7815454e-39
0.55083972 -0.19699644 0.65844321 2.8599577e-39
0.54838765 -0.19311261 0.65821469 2.8599577e-39
0.5492453 -0.19381906 0.65970826 2.8599577e-39
0.54687464 -0.19031858 0.6589359 2.8599577e-39
0.54516333 -0.1876701 0.65860689 2.8599577e-39
0.54278415 -0.18337967 0.65786618 2.8599577e-39
0.54365236 -0.18489136 0.65933722 2.8599577e-39
0.54158002 -0.18131647 0.65951371 2.8599577e-39
0.53984588 -0.1778807 0.65923572 2.8599577e-39
0.54104447 -0.17993349 0.65758973 2.8599577e-39
0.53871256 -0.17547461 0.65813613 2.8599577e-39
0.53753257 -0.17185454 0.65798873 2.8599577e-39
0.5380398 -0.1688579 0.65906346 2.8599577e-39
0.53859198 -0.16587506 0.65830231 2.8599577e-39
0.53900683 -0.16363399 0.65773046 2.8599577e-39
0.54577982 -0.15808421 0.65909582 2.8599577e-39
0.54856348 -0.15705146 0.65797663 2.8599577e-39
0.5537743 -0.15447092 0.65892261 2.8599577e-39
0.5566026 -0.15341958 0.65779519 2.8599577e-39
0.55902255 -0.15187179 0.65987545 2.8599577e-39
0.56187797 -0.15080827 0.65874708 3.136183e-39
0.56475186 -0.14973792 0.65761125 3.5049614e-39
0.56854367 -0.14842346 0.65926361 7.0076372e-39
0.57297236 -0.14763206 0.65747809 1.106312e-38
0.57395518 -0.14759131 0.65885061 1.1339704e-38
0.62268323 -0.28822935 0.66171235 2.8599577e-39
0.62003493 -0.2832289 0.66223574 2.8599577e-39
0.6185286 -0.28050894 0.66141224 2.8599577e-39
0.61693138 -0.27745947 0.66200829 2.8599577e-39
0.6153034 -0.27440262 0.66264588 2.8599577e-39
0.61304688 -0.27160954 0.66142929 2.9517932e-39
0.61044967 -0.26865256 0.66063005 3.228736e-39
0.6081906 -0.2656824 0.66161638 6.915443e-39
0.60539889 -0.26227176 0.66151553 1.1708845e-38
0.60197407 -0.25837374 0.6604569 8.5702237e-39
0.60368484 -0.2603209 0.66098559 1.0416661e-38
0.60038817 -0.25594693 0.66240084 8.2954417e-39
0.59699529 -0.25208217 0.66133738 8.0188534e-39
0.59869337 -0.25401419 0.66186464 8.2954417e-39
0.59530061 -0.25015378 0.66081107 7.7422651e-39
0.59367305 -0.24799483 0.66151738 6.9103394e-39
0.59046423 -0.24397369 0.66157997 6.9092576e-39
0.59206551 -0.2458498 0.66220576 6.0787725e-39
0.58720607 -0.24020158 0.6604113 7.6482688e-39
0.58883315 -0.24208574 0.6609959 7.5557116e-39
0.57676834 -0.23734716 0.66034645 8.3905562e-39
0.58556592 -0.23780052 0.66247386 6.7234244e-39
0.58314157 -0.23499271 0.66159701 6.908536e-39
0.58072269 -0.23219137 0.6607222 7.2784031e-39
0.57911193 -0.23007718 0.66145647 6.9081772e-39
0.57590705 -0.22611757 0.66160971 7.2784031e-39
0.57750708 -0.22797029 0.66219068 6.7234244e-39
0.57271504 -0.22242168 0.6604507 8.4801945e-39
0.57430965 -0.22426803 0.6610297 8.2958004e-39
0.57105577 -0.22030672 0.66127586 7.9259361e-39
0.56839395 -0.21718964 0.66209424 8.2961619e-39
0.56553555 -0.21423586 0.66186589 8.665306e-39
0.56269085 -0.21129625 0.66163868 7.7404616e-39
0.55989182 -0.20838258 0.66136652 9.4017864e-39
0.55654788 -0.20467204 0.66051501 1.1708845e-38
0.55812824 -0.20648755 0.66105926 1.1616649e-38
0.55530423 -0.20254184 0.66216737 1.1524457e-38
0.55328053 -0.19962867 0.66134542 7.1923858e-39
0.55110997 -0.19597585 0.66160893 3.1365418e-39
0.54966748 -0.19354831 0.66178441 2.8599577e-39
0.54794407 -0.19089299 0.66146266 2.8599577e-39
0.54515064 -0.18643594 0.66127324 2.8599577e-39
0.546224 -0.18824238 0.66114253 2.8599577e-39
0.54407966 -0.18463294 0.66140485 2.8599577e-39
0.54237038 -0.18199968 0.66108489 2.8599577e-39
0.54302287 -0.18262777 0.66284025 2.8599577e-39
0.53981662 -0.17745699 0.66192651 2.8599577e-39
0.54066437 -0.17937104 0.6607666 2.8599577e-39
0.53865266 -0.17583723 0.66087437 2.8599577e-39
0.53746092 -0.17287894 0.66162795 2.8599577e-39
0.53779995 -0.16996224 0.66204536 2.8599577e-39
0.53833878 -0.1669839 0.66130543 2.8599577e-39
0.53887868 -0.16399938 0.66056395 2.8599577e-39
0.53951442 -0.16164798 0.66101599 2.8599577e-39
0.54129505 -0.16029924 0.66122806 2.8599577e-39
0.54301357 -0.1591104 0.66020805 2.8599577e-39
0.54444981 -0.15824533 0.66222513 2.8599577e-39
0.54817146 -0.15655358 0.661156 2.8599577e-39
0.55096394 -0.15551555 0.66004294 2.8599577e-39
0.55336624 -0.15397847 0.66211081 2.8599577e-39
0.55618531 -0.15292847 0.66099674 2.8599577e-39
0.5614444 -0.15032277 0.66195732 3.0443461e-39
0.56472135 -0.1492101 0.66161251 3.5053201e-39
0.57050127 -0.14834198 0.66199356 7.6529982e-39
0.57542855 -0.14753021 0.6609081 1.1062397e-38
0.57690096 -0.14746915 0.66296417 1.0785807e-38
0.63760275 -0.30479389 0.66517597 2.2142085e-39
0.63435876 -0.30144307 0.66501433 2.7674005e-39
0.63110638 -0.29809493 0.66487908 2.8599577e-39
0.62894756 -0.29587257 0.66478926 2.8599577e-39
0.62574261 -0.2925632 0.66463244 2.8599577e-39
0.62364912 -0.28953427 0.66448462 2.8599577e-39
0.6219191 -0.28631589 0.66435283 2.8599577e-39
0.62053794 -0.28374636 0.66424811 2.8599577e-39
0.61900628 -0.28072715 0.66475844 2.8599577e-39
0.61684316 -0.27684307 0.66472167 2.8599577e-39
0.59869856 -0.27349716 0.66352332 4.6112949e-39
0.61510319 -0.27373666 0.66549069 2.9517932e-39
0.61368382 -0.27191865 0.6645813 3.2283773e-39
0.61114752 -0.26899493 0.66371137 4.8875203e-39
0.608374 -0.26540589 0.66574395 1.0695064e-38
0.60517228 -0.26161355 0.66440356 1.1431898e-38
0.60677189 -0.26350826 0.66507328 1.1524455e-38
0.60357511 -0.25972176 0.66373497 9.3085104e-39
0.60101652 -0.25654078 0.66424471 6.8170606e-39
0.59846711 -0.25337088 0.66475582 7.0936503e-39
0.59609377 -0.25056005 0.66375864 6.2631665e-39
0.59357429 -0.2471583 0.6655618 5.6156307e-39
0.59052235 -0.24347939 0.66412538 5.7996605e-39
0.59202862 -0.24530898 0.66486615 5.4312381e-39
0.58885145 -0.24157573 0.66359347 6.1680856e-39
0.58675057 -0.23875743 0.66447669 6.0766103e-39
0.58397418 -0.23543082 0.66447562 5.9836944e-39
0.58077455 -0.23146123 0.66458827 6.1688059e-39
0.58232397 -0.23354761 0.66393971 6.1684458e-39
0.57914168 -0.22934209 0.66534948 5.9836944e-39
0.5759095 -0.22562581 0.66422939 6.2610029e-39
0.57750642 -0.22747444 0.66481149 6.07589e-39
0.57431531 -0.22378038 0.66364831 6.8156201e-39
0.57220113 -0.22100526 0.66461301 6.1698863e-39
0.56956404 -0.21778935 0.66451603 5.5252358e-39
0.56582886 -0.21388751 0.66411114 8.5738306e-39
0.56773031 -0.21585141 0.66426617 6.4493585e-39
0.56393296 -0.21192929 0.6639564 8.1106903e-39
0.56034267 -0.207876 0.66471678 8.8482525e-39
0.56221193 -0.20981523 0.66489124 7.6489877e-39
0.55660349 -0.2042359 0.66307753 1.1708845e-38
0.55847865 -0.20594221 0.66454279 1.1708845e-38
0.55499804 -0.20195982 0.66520274 1.1708845e-38
0.55683619 -0.20387535 0.66539639 1.1708845e-38
0.5533188 -0.19931248 0.66480505 9.2199497e-39
0.55173439 -0.19670545 0.66428679 5.2566587e-39
0.54930198 -0.19296174 0.66490829 3.2283773e-39
0.54772919 -0.190373 0.66438806 2.8599577e-39
0.5461567 -0.18778537 0.66387242 2.8599577e-39
0.54374862 -0.18407999 0.66449219 2.8599577e-39
0.54135245 -0.18039304 0.66510898 2.8599577e-39
0.53972864 -0.17701274 0.6646862 2.8599577e-39
0.54070103 -0.17876366 0.66467738 2.8599577e-39
0.53901541 -0.17536202 0.66434133 2.8599577e-39
0.53839904 -0.17308582 0.66474444 2.8599577e-39
0.53755975 -0.16947816 0.66501451 2.8599577e-39
0.53797567 -0.16646293 0.66444534 2.8599577e-39
0.53873467 -0.16317293 0.66428572 2.8599577e-39
0.54165888 -0.16065615 0.66469336 2.8599577e-39
0.54447782 -0.15868223 0.66482139 2.8599577e-39
0.54688764 -0.15694369 0.66464275 2.8599577e-39
0.54858136 -0.15596217 0.66587263 2.8599577e-39
0.55052221 -0.15482754 0.66458899 2.8599577e-39
0.55296052 -0.15348874 0.66528118 2.8599577e-39
0.55577046 -0.15244013 0.66418028 2.8599577e-39
0.55859834 -0.15138483 0.66307241 2.8599577e-39
0.56127369 -0.14992192 0.66480875 2.9521519e-39
0.56610876 -0.14912562 0.66374731 3.781544e-39
0.56708312 -0.14908494 0.66510415 3.8737397e-39
0.57196826 -0.14828093 0.66403937 7.837388e-39
0.5739392 -0.14837378 0.66543853 1.1432636e-38
0.57823837 -0.14753577 0.66388083 1.2445687e-38
0.63689828 -0.30381221 0.66857475 2.5830008e-39
0.63485759 -0.30164516 0.66832769 2.7673991e-39
0.6317541 -0.29837871 0.66802114 2.8599563e-39
0.62853277 -0.29505777 0.66786635 2.8599577e-39
0.62638706 -0.29284954 0.66777205 2.8599577e-39
0.62374908 -0.28869903 0.66826177 2.8599577e-39
0.62475425 -0.29090804 0.66708654 2.8599577e-39
0.62267894 -0.28704858 0.66692436 2.8599577e-39
0.62061 -0.2832008 0.66676247 2.8599577e-39
0.6216718 -0.28484577 0.6681062 2.8599577e-39
0.61889488 -0.28009474 0.66748744 2.8599577e-39
0.61715162 -0.27698332 0.66825086 2.8599577e-39
0.61490393 -0.27307361 0.6683228 4.1503238e-39
0.61612761 -0.27536029 0.66687101 2.9517932e-39
0.61349332 -0.27126271 0.66740751 5.6250783e-39
0.61086166 -0.26829711 0.66665709 8.4823931e-39
0.6080597 -0.26470178 0.66871703 1.1708845e-38
0.60641921 -0.26278877 0.66809696 1.1616648e-38
0.60402739 -0.25995612 0.66709208 1.0140073e-38
0.60164064 -0.25712937 0.66608918 6.8170592e-39
0.62546021 -0.25785318 0.66802901 2.8599577e-39
0.59903151 -0.25366646 0.66796851 5.7074662e-39
0.59590983 -0.24994361 0.66659176 5.9840545e-39
0.59350932 -0.24660398 0.66824269 5.9836944e-39
0.59506238 -0.24845569 0.66892958 5.9836944e-39
0.59199262 -0.24477072 0.6675148 5.9836944e-39
0.58947867 -0.24155377 0.66715956 5.983693e-39
0.58746231 -0.23877729 0.66793174 5.9836944e-39
0.58422744 -0.23503883 0.66676682 5.9836944e-39
0.58592963 -0.23694552 0.66724116 5.9836944e-39
0.58265603 -0.23294228 0.66743475 5.9836944e-39
0.58024573 -0.22990699 0.66786563 5.9836944e-39
0.5768736 -0.2261311 0.66692138 5.9836944e-39
0.57448566 -0.22312367 0.66734946 5.9836944e-39
0.57629538 -0.2248157 0.66895515 5.9836944e-39
0.5721097 -0.22013055 0.66777766 5.7996619e-39
0.56960779 -0.21733004 0.66707379 5.4308779e-39
0.5662272 -0.21335003 0.66751707 7.2787618e-39
0.56808579 -0.21529192 0.66772699 5.8003835e-39
0.56440192 -0.21142545 0.66727114 7.8333803e-39
0.56093466 -0.20743145 0.66786754 8.7556968e-39
0.56278628 -0.20936005 0.66806537 6.9096178e-39
0.55908799 -0.20550816 0.66767025 1.1708845e-38
0.5563283 -0.2026338 0.66737533 1.1708845e-38
0.55357862 -0.1997699 0.66708165 1.1708845e-38
0.55074918 -0.19586071 0.66821909 4.3347122e-39
0.55216664 -0.19759148 0.66895056 8.9433657e-39
0.54832858 -0.19213353 0.66882831 3.0439874e-39
0.550026 -0.19441222 0.66656476 3.5971556e-39
0.54760557 -0.19068612 0.66717857 2.8599577e-39
0.54519719 -0.18697855 0.66778934 2.8599577e-39
0.544007 -0.1846773 0.66764373 2.8599577e-39
0.5422976 -0.18125965 0.66732997 2.8599577e-39
0.54196322 -0.17921278 0.66821849 2.8599577e-39
0.5405373 -0.17591418 0.66752785 2.8599577e-39
0.53916115 -0.17230672 0.667211 2.8599577e-39
0.53835702 -0.16917872 0.66786754 2.8599577e-39
0.53761452 -0.16594484 0.66756803 2.8599577e-39
0.53881836 -0.16322073 0.66767758 2.8599577e-39
0.54047501 -0.16224465 0.66892201 2.8599577e-39
0.54169542 -0.16108736 0.66727066 2.8599577e-39
0.54357016 -0.15977532 0.66735971 2.8599577e-39
0.54545051 -0.15845932 0.667449 2.8599577e-39
0.54733658 -0.15713935 0.66753864 2.8599577e-39
0.55017698 -0.1551514 0.66767365 2.8599577e-39
0.553029 -0.1531554 0.66780913 2.8599577e-39
0.55535781 -0.1519545 0.66734624 2.8599577e-39
0.55829763 -0.15076494 0.66739893 2.8599577e-39
0.56620854 -0.15008846 0.66884518 3.2291115e-39
0.56273007 -0.14986102 0.66683316 3.0447133e-39
0.56471097 -0.14996454 0.66817582 3.2291115e-39
0.56892627 -0.14914206 0.66664612 3.7819196e-39
0.57194364 -0.14939004 0.66798973 6.7314286e-39
0.5769791 -0.14862192 0.66678727 1.2999225e-38
0.58002794 -0.14887077 0.66813982 1.2445327e-38
0.63416445 -0.30067718 0.67170209 2.8595947e-39
0.63619798 -0.30283642 0.67195314 2.6755608e-39
0.63213658 -0.29852402 0.67145181 2.8599577e-39
0.62809795 -0.29423583 0.67095327 2.8599577e-39
0.6301145 -0.29637694 0.67120212 2.8599577e-39
0.6259805 -0.29204589 0.67082876 2.8599577e-39
0.62372422 -0.28809839 0.67087412 2.8599577e-39
0.62481886 -0.29034901 0.66959888 2.8599577e-39
0.62269819 -0.28647244 0.66949046 2.8599577e-39
0.62043256 -0.2825318 0.66956031 2.8599577e-39
0.62145716 -0.28415561 0.67094147 2.8599577e-39
0.61919838 -0.2802273 0.67100859 2.8599577e-39
0.61694783 -0.2763133 0.67107552 2.9517932e-39
0.61817515 -0.27860564 0.66962999 2.8599577e-39
0.61592603 -0.27469379 0.66969943 2.9517932e-39
0.61400455 -0.27151164 0.6706816 8.5745873e-39
0.61155218 -0.26863641 0.66971874 1.07869e-38
0.6078831 -0.2640667 0.67151308 1.1708845e-38
0.60980409 -0.26666707 0.66921747 1.1155678e-38
0.60614628 -0.26211041 0.67101192 1.1708485e-38
0.6029464 -0.25833517 0.66969496 9.5861777e-39
0.60451645 -0.26020759 0.67038739 1.1339702e-38
0.60133791 -0.25617763 0.67034531 6.908173e-39
0.59895521 -0.25309724 0.67065132 5.9836944e-39
0.59661758 -0.25031012 0.66961747 5.9836944e-39
0.59345901 -0.24605854 0.67089498 5.9836944e-39
0.59499443 -0.2478994 0.67159998 5.9836944e-39
0.59195697 -0.24423467 0.6701526 5.9836944e-39
0.58969283 -0.24124062 0.67035472 5.9836944e-39
0.5874356 -0.23825531 0.67055839 5.9836944e-39
0.58444476 -0.23438089 0.67038989 5.9836944e-39
0.58594435 -0.23644491 0.66981977 5.9836944e-39
0.58295006 -0.23232313 0.6709609 5.9836944e-39
0.58050311 -0.22952557 0.67013896 5.9836944e-39
0.57810581 -0.22650886 0.67056 5.9836944e-39
0.57488298 -0.22256958 0.67074436 5.9836944e-39
0.5765577 -0.22444347 0.67121774 5.9836944e-39
0.57321167 -0.22069946 0.67027199 5.9836944e-39
0.56985676 -0.21696094 0.66935861 5.9836944e-39
0.57079232 -0.21769929 0.67075932 5.9836944e-39
0.56831884 -0.21468301 0.67132837 5.9840531e-39
0.5655399 -0.21178141 0.67100757 6.0766103e-39
0.56193554 -0.20796549 0.67047238 7.370233e-39
0.55936182 -0.20516507 0.66991913 1.1524094e-38
0.55673617 -0.20234978 0.66944885 1.1708485e-38
0.55410397 -0.19931366 0.67030162 1.1616651e-38
0.55591595 -0.20098484 0.67182326 1.1708845e-38
0.55076212 -0.19542445 0.67080981 4.5191007e-39
0.55252111 -0.19729196 0.67108744 8.9433657e-39
0.54905057 -0.19357899 0.67047572 3.5049614e-39
0.55569917 -0.19326456 0.67162758 1.1247871e-38
0.54677582 -0.18992266 0.67089885 2.8599577e-39
0.545632 -0.18751754 0.66982001 2.8599577e-39
0.54639059 -0.18818285 0.67141259 2.8599577e-39
0.54447204 -0.18376763 0.67050362 2.8599577e-39
0.54353136 -0.1815694 0.67002702 2.8599577e-39
0.54237026 -0.17816532 0.67028272 2.8599577e-39
0.54314929 -0.17983919 0.67054021 2.8599577e-39
0.54153371 -0.1756804 0.67010528 2.8599577e-39
0.53992128 -0.17152947 0.66967136 2.8599577e-39
0.54051781 -0.17313102 0.67017007 2.8599577e-39
0.53952754 -0.16980566 0.67020422 2.8599577e-39
0.53848225 -0.16725409 0.67031395 2.8599577e-39
0.5382179 -0.16400599 0.67067289 2.8599577e-39
0.54177684 -0.16114236 0.67064738 2.8599577e-39
0.54420698 -0.15943733 0.67042339 2.8599577e-39
0.54669505 -0.15773855 0.6701377 2.8599577e-39
0.55082262 -0.15500528 0.66942799 2.8599577e-39
0.55382168 -0.15288198 0.67067337 2.8599577e-39
0.55590165 -0.15160295 0.67054236 2.8599577e-39
0.55979174 -0.15071756 0.66935825 3.2291115e-39
0.56770825 -0.15021257 0.66951549 3.4131413e-39
0.57496977 -0.14963876 0.66933733 1.1340083e-38
0.57724488 -0.14982575 0.67035049 1.3183975e-38
0.63823718 -0.30500168 0.67220497 2.12165e-39
0.62908673 -0.29524803 0.67495334 2.8599577e-39
0.62558734 -0.29125214 0.67385674 2.8599577e-39
0.62701768 -0.29308462 0.67477059 2.8599577e-39
0.62474972 -0.28972369 0.67225736 2.8599577e-39
0.62297755 -0.28658208 0.6730302 2.8599577e-39
0.62124336 -0.2834686 0.67376417 2.8599577e-39
0.61960554 -0.28069925 0.67310643 2.8599577e-39
0.6179691 -0.27793211 0.67245108 2.8599577e-39
0.6162352 -0.27483827 0.67320132 3.228736e-39
0.61450797 -0.27175653 0.67394894 8.6671417e-39
0.6113674 -0.2679913 0.67251813 1.1524815e-38
0.61311483 -0.26995957 0.67302227 1.1340067e-38
0.60953355 -0.26570842 0.67340779 1.1616651e-38
0.60697442 -0.26252297 0.67388582 1.1708845e-38
0.60451269 -0.25966358 0.67297125 1.1431898e-38
0.60235041 -0.25678074 0.67385203 9.031562e-39
0.59965742 -0.25345814 0.67366832 5.9840531e-39
0.59651113 -0.2494705 0.67361832 5.9836944e-39
0.59810084 -0.25160253 0.67297781 5.9840531e-39
0.59492689 -0.2473454 0.67425936 5.9836944e-39
0.59267086 -0.24461067 0.67315125 5.9836944e-39
0.59040785 -0.24161932 0.67334682 5.9836944e-39
0.5874092 -0.23773547 0.6731745 5.9836944e-39
0.58889937 -0.23954423 0.67391437 5.9836944e-39
0.58592093 -0.235929 0.67243564 5.9836944e-39
0.58367342 -0.23271604 0.67393446 5.9836944e-39
0.58068514 -0.22911207 0.67249858 5.9836944e-39
0.57849109 -0.22594509 0.67395431 5.9836944e-39
0.57995403 -0.22772774 0.67470115 5.9836944e-39
0.57511556 -0.22218806 0.67303795 5.9836944e-39
0.57681429 -0.22407018 0.67347974 5.9836944e-39
0.57350963 -0.2201093 0.67377478 5.9836944e-39
0.57128781 -0.21754837 0.67357922 5.983693e-39
0.56844676 -0.21426749 0.67375249 5.9836944e-39
0.5656724 -0.21137182 0.67342734 5.9840545e-39
0.56290805 -0.20848663 0.67310339 5.9844146e-39
0.55932617 -0.20469446 0.67256236 1.1616289e-38
0.56107187 -0.20657016 0.6728881 9.5854574e-39
0.55760312 -0.2026054 0.67350745 1.1708845e-38
0.55419171 -0.1986807 0.67408061 1.1524457e-38
0.55588746 -0.20052488 0.67445117 1.1708845e-38
0.55081153 -0.19500473 0.67334205 3.9659339e-39
0.55249977 -0.19684066 0.67371088 7.653001e-39
0.56020808 -0.19684482 0.67298269 4.0584883e-39
0.5491271 -0.19317295 0.67297405 3.0439874e-39
0.54768735 -0.19076902 0.67315197 2.8599577e-39
0.5458566 -0.18617535 0.6734221 2.8599577e-39
0.54655355 -0.18782037 0.6737932 2.8599577e-39
0.54505807 -0.1844912 0.67318934 2.8599577e-39
0.54399061 -0.18158174 0.67374772 2.8599577e-39
0.54246092 -0.17758735 0.67406398 2.8599577e-39
0.54315293 -0.17942901 0.6731379 2.8599577e-39
0.54165614 -0.17545092 0.67341131 2.8599577e-39
0.54030609 -0.17186496 0.6730606 2.8599577e-39
0.53961951 -0.17003749 0.67398459 2.8599577e-39
0.53827471 -0.16646515 0.67363292 2.8599577e-39
0.5379864 -0.16354281 0.67359006 2.8599577e-39
0.54118526 -0.1607638 0.67447722 2.8599577e-39
0.54481697 -0.15811709 0.67480785 2.8599577e-39
0.54792607 -0.15642837 0.67326701 2.8599577e-39
0.55055404 -0.15476377 0.67281771 2.8599577e-39
0.55308855 -0.15388349 0.67423213 2.8599577e-39
0.55493766 -0.15271458 0.67310387 2.8599577e-39
0.55656195 -0.1520883 0.67357135 2.8599577e-39
0.55943412 -0.15067561 0.67328596 2.8599577e-39
0.56145066 -0.15020493 0.67498368 2.8599577e-39
0.63788855 -0.30390584 0.67644447 2.6755622e-39
0.63533121 -0.30177736 0.6755051 2.5830022e-39
0.63116205 -0.29741794 0.67513674 2.8599577e-39
0.6332435 -0.2995944 0.67532063 2.8595947e-39
0.62464494 -0.28963172 0.6762265 2.8599577e-39
0.62253809 -0.28577709 0.67610461 2.8599577e-39
0.63981038 -0.28608593 0.67537206 7.9389261e-39
0.62082797 -0.28268272 0.67680937 2.8599577e-39
0.62001055 -0.28116781 0.67520034 2.8599577e-39
0.617764 -0.27726161 0.67525941 2.8599577e-39
0.61873436 -0.27885222 0.67668694 2.9521519e-39
0.61603433 -0.274176 0.67600262 5.8094667e-39
0.6143114 -0.27110237 0.67674315 1.1156037e-38
0.61118352 -0.26734912 0.67530519 1.1708845e-38
0.6129269 -0.26931238 0.67581093 1.1708845e-38
0.61028075 -0.26580426 0.67765152 1.1708845e-38
0.60699522 -0.26198885 0.67642641 1.1708845e-38
0.60453808 -0.25913554 0.67551029 1.1524094e-38
0.6029321 -0.2567156 0.67742944 1.1154948e-38
0.5996778 -0.2529375 0.67621171 6.5386688e-39
0.60130358 -0.25482488 0.67682004 8.8464491e-39
0.59805483 -0.25105327 0.67560446 6.0762487e-39
0.59563732 -0.24771686 0.67724669 6.0762501e-39
0.59263384 -0.24407691 0.67576814 5.9836944e-39
0.59029603 -0.24080078 0.67733866 6.07589e-39
0.5873692 -0.23721148 0.67579705 5.9836944e-39
0.58883178 -0.23900504 0.67656738 5.9840531e-39
0.58583188 -0.23513488 0.67640531 5.9836944e-39
0.58358347 -0.23217829 0.67661726 5.983693e-39
0.58140445 -0.22950627 0.67546678 5.9836944e-39
0.578448 -0.22543947 0.67658132 5.9836944e-39
0.57987964 -0.22720569 0.67736346 5.9840531e-39
0.57698739 -0.2236619 0.67583847 5.9836944e-39
0.57484484 -0.2208907 0.67681295 5.9836944e-39
0.57209039 -0.21764168 0.67685634 5.9836944e-39
0.56857413 -0.21385339 0.67616832 5.8918575e-39
0.57040751 -0.21577843 0.67641389 5.7996605e-39
0.56580436 -0.21096365 0.67583871 5.9840545e-39
0.56311274 -0.20788392 0.67670965 6.539029e-39
0.55938327 -0.2042643 0.67507476 1.1616649e-38
0.56128109 -0.20597324 0.67649019 1.0324106e-38
0.55770504 -0.20197268 0.67724782 1.1708845e-38
0.55952531 -0.20387112 0.6774677 1.1708485e-38
0.55416691 -0.19822694 0.67669559 1.1616651e-38
0.55588961 -0.20007932 0.67702872 1.1708845e-38
0.55247837 -0.19639118 0.67632371 7.9295837e-39
0.54985029 -0.19326784 0.67633247 3.3209302e-39
0.54803807 -0.18980706 0.67613918 2.8599577e-39
0.54717338 -0.18742725 0.6768508 2.8599577e-39
0.54557037 -0.18406196 0.67639124 2.8599577e-39
0.54637164 -0.1857437 0.6766215 2.8599577e-39
0.5444743 -0.18147933 0.67655563 2.8599577e-39
0.54258251 -0.17722712 0.67649043 2.8599577e-39
0.54337996 -0.17890128 0.67671883 2.8599577e-39
0.54199439 -0.17543189 0.67727458 2.8599577e-39
0.54074323 -0.17300633 0.67636287 2.8599577e-39
0.53950673 -0.16960441 0.67672628 2.8599577e-39
0.53817028 -0.16617592 0.67722857 2.8599577e-39
0.53775609 -0.16308191 0.67649275 2.8599577e-39
0.53998452 -0.1609467 0.67737836 2.8599577e-39
0.54214144 -0.15975097 0.67707855 2.8599577e-39
0.54440278 -0.15858284 0.67665064 2.8599577e-39
0.54774171 -0.15699892 0.67653149 2.8599577e-39
0.54987776 -0.15617803 0.67715621 2.8599577e-39
0.55124843 -0.15504675 0.67535514 2.8599577e-39
0.55332339 -0.15439966 0.67650938 2.8599577e-39
0.5553993 -0.15375283 0.67766601 2.8599577e-39
0.55725253 -0.15258449 0.67654669 2.8599577e-39
0.55957824 -0.15138456 0.67611194 2.8599577e-39
0.56237876 -0.15015341 0.67636645 2.8599577e-39
0.56519103 -0.14891699 0.67662179 2.9517932e-39
0.63960683 -0.30359212 0.67960984 2.4908052e-39
0.63539124 -0.30090418 0.6792652 3.136553e-39
0.63180339 -0.29824609 0.67951161 2.8599577e-39
0.62973279 -0.29608077 0.67932224 2.8599577e-39
0.62581426 -0.29187447 0.67871058 2.8599577e-39
0.62766832 -0.29392189 0.67913336 2.8599577e-39
0.62370741 -0.28801978 0.67858493 2.8599577e-39
0.62448573 -0.28951246 0.68023592 2.8599577e-39
0.62238562 -0.28566986 0.68010807 2.8599577e-39
0.6216073 -0.28417718 0.6784597 2.8599577e-39
0.61990285 -0.281093 0.67915785 2.8599577e-39
0.61742675 -0.27652818 0.67821038 3.136183e-39
0.61820513 -0.27802074 0.6798538 3.0443461e-39
0.61612463 -0.27421415 0.6797272 8.298362e-39
0.61406308 -0.2704255 0.67958647 1.1708845e-38
0.61532688 -0.27271211 0.67810887 1.1617009e-38
0.61275202 -0.26867402 0.67857295 1.1708845e-38
0.61017287 -0.26520494 0.68032861 1.1708845e-38
0.60776657 -0.2623744 0.67934406 1.1708845e-38
0.60455626 -0.25860608 0.67804831 1.1708845e-38
0.6061601 -0.26048875 0.67869568 1.1708845e-38
0.60277706 -0.2561087 0.68016678 1.1616289e-38
0.60437465 -0.25798368 0.68081385 1.1708845e-38
0.59958947 -0.25236773 0.67887586 7.2787576e-39
0.60118198 -0.2542367 0.67952079 1.0970197e-38
0.59791648 -0.2502012 0.67960697 7.7390169e-39
0.59547448 -0.24712163 0.67999828 7.3687938e-39
0.59322977 -0.24439879 0.67888403 6.0762501e-39
0.59014362 -0.24022247 0.68008041 6.0766103e-39
0.5916841 -0.24230738 0.6794818 6.2613617e-39
0.58868265 -0.23843099 0.67930919 6.07589e-39
0.58642387 -0.23546669 0.67951906 5.8918575e-39
0.58418441 -0.23251654 0.67971545 5.7996619e-39
0.58129048 -0.22871912 0.67945218 5.8918575e-39
0.58274782 -0.23074423 0.67893052 5.7996619e-39
0.57983768 -0.22669996 0.67997485 5.9840531e-39
0.57769543 -0.22405747 0.67880213 5.9836944e-39
0.57473874 -0.2200186 0.67993587 6.07589e-39
0.5722701 -0.21724662 0.67919433 5.983693e-39
0.56876445 -0.2132352 0.67977488 6.4461145e-39
0.57055128 -0.21537034 0.67879891 5.9840531e-39
0.56692082 -0.21131285 0.67955071 6.6319449e-39
0.56331646 -0.20728397 0.68029928 1.0601054e-38
0.56508225 -0.20939568 0.67932713 7.7397372e-39
0.56148922 -0.20537908 0.68007547 1.1524092e-38
0.55784959 -0.20158468 0.67962962 1.1708845e-38
0.55966699 -0.20347933 0.67985225 1.1708845e-38
0.55603719 -0.19969513 0.67940766 1.1708845e-38
0.5533433 -0.19687709 0.67905605 1.0971288e-38
0.55055171 -0.19335385 0.67970181 4.7034905e-39
0.548985 -0.19066617 0.67832929 2.8599577e-39
0.54925901 -0.19034669 0.68053854 2.8599577e-39
0.54808927 -0.1879421 0.67950636 2.8599577e-39
0.54648745 -0.18458071 0.67904484 2.8599577e-39
0.54488885 -0.18122596 0.67858428 2.8599577e-39
0.54400289 -0.17852658 0.679757 2.8599577e-39
0.54270482 -0.17608306 0.6789065 2.8599577e-39
0.54111481 -0.172747 0.67844748 2.8599577e-39
0.53934097 -0.16915348 0.67952645 2.8599577e-39
0.53865457 -0.16674875 0.67915833 2.8599577e-39
0.5371502 -0.1634609 0.67859882 2.8599577e-39
0.53831291 -0.16192953 0.67961562 2.8599577e-39
0.54080623 -0.16086021 0.67885906 2.8599577e-39
0.54305875 -0.15969753 0.67843628 2.8599577e-39
0.54537505 -0.15836525 0.67922652 2.8599577e-39
0.54797953 -0.15712388 0.67965049 2.8599577e-39
0.55054498 -0.15604092 0.678855 2.8599577e-39
0.55309379 -0.15494175 0.67809528 2.8599577e-39
0.55520642 -0.15333834 0.68048334 2.8599577e-39
0.55780602 -0.15223883 0.67968595 2.9517932e-39
0.56042022 -0.15113315 0.67888397 2.9517932e-39
0.5630492 -0.15002124 0.67807746 2.9517932e-39
0.56571102 -0.14856979 0.67980856 3.0443461e-39
0.57103312 -0.14759253 0.68074995 3.5971556e-39
0.64132178 -0.30327898 0.68276912 2.2142127e-39
0.61992019 -0.30237979 0.68221492 2.5830022e-39
0.63710499 -0.30059457 0.68241525 3.136553e-39
0.6324861 -0.2980029 0.68127906 3.22875e-39
0.63334161 -0.29785001 0.68284792 3.22875e-39
0.62917554 -0.29519892 0.68249601 3.22875e-39
0.62576234 -0.29180512 0.68258166 2.8599577e-39
0.6239503 -0.28865534 0.68338662 2.8599577e-39
0.62316304 -0.28716075 0.68175453 2.8599577e-39
0.62150115 -0.28409663 0.68239582 2.8599577e-39
0.6194576 -0.28029951 0.68221498 2.8599577e-39
0.61791503 -0.27731115 0.68272984 2.8599577e-39
0.61658108 -0.274804 0.68258375 5.9938566e-39
0.61491686 -0.27167594 0.68240219 1.1708845e-38
0.61316776 -0.26888096 0.68190408 1.1616651e-38
0.61048555 -0.26536655 0.68376917 1.1708845e-38
0.60756999 -0.26173913 0.68211997 1.1708845e-38
0.60902697 -0.26355183 0.68294412 1.1708845e-38
0.60597479 -0.25986171 0.68146193 1.1708845e-38
0.60259986 -0.25549376 0.68291926 1.1708845e-38
0.60419381 -0.25736409 0.68356705 1.1708845e-38
0.60100847 -0.25362641 0.68227249 1.1524452e-38
0.59854376 -0.25053209 0.68267345 1.0970197e-38
0.59608775 -0.24744831 0.68307561 1.1616289e-38
0.59307081 -0.24381186 0.68162566 7.5546256e-39
0.59453702 -0.2456098 0.68239981 9.6780146e-39
0.59145123 -0.24143596 0.68358231 7.2791177e-39
0.58926308 -0.23875308 0.68242455 5.9858538e-39
0.58704209 -0.23580833 0.68258369 6.1698863e-39
0.58413363 -0.23199917 0.68232656 5.524154e-39
0.5855689 -0.23376961 0.68311226 5.5245141e-39
0.58270001 -0.23023073 0.68154174 5.6159909e-39
0.58050966 -0.22707653 0.68296707 5.6163496e-39
0.57740873 -0.22310217 0.68213636 5.8929379e-39
0.57549059 -0.22043677 0.68282288 6.7248608e-39
0.57253861 -0.21665663 0.68268591 8.570581e-39
0.5740726 -0.21868812 0.68204367 7.1858417e-39
0.57073629 -0.21474838 0.68239725 9.4925415e-39
0.56803429 -0.21166161 0.68325055 1.0416301e-38
0.56527865 -0.20879115 0.6829111 1.0693608e-38
0.5625335 -0.20593283 0.68257558 1.1616649e-38
0.55798125 -0.2011929 0.68201923 1.1708845e-38
0.55979824 -0.2030848 0.68224126 1.1708845e-38
0.55616915 -0.19930613 0.68179768 1.1708845e-38
0.55353689 -0.19629841 0.6826449 1.0141538e-38
0.55099887 -0.19333856 0.68338501 4.4265477e-39
0.54873413 -0.18971162 0.68378222 2.8599577e-39
0.54980755 -0.19171463 0.68238199 2.8599577e-39
0.5258708 -0.1873769 0.68265802 2.8599577e-39
0.54754597 -0.1880921 0.68278134 2.8599577e-39
0.54529434 -0.18448563 0.68317896 2.8599577e-39
0.54439688 -0.18141158 0.68180209 2.8599577e-39
0.53958404 -0.172567 0.68305272 2.8599577e-39
0.53728426 -0.16665128 0.68355548 2.8599577e-39
0.53729308 -0.16372523 0.68226254 2.8599577e-39
0.53900874 -0.1616126 0.68253726 2.8599577e-39
0.54143214 -0.15993588 0.68230742 2.8599577e-39
0.54495174 -0.1576755 0.68362916 2.8599577e-39
0.54749405 -0.15660024 0.68284929 2.8599577e-39
0.55005056 -0.15551899 0.68206501 2.8599577e-39
0.55262125 -0.15443169 0.68127644 2.8599577e-39
0.55469704 -0.15282299 0.68369704 2.8599577e-39
0.55728751 -0.15172526 0.68291092 2.9517932e-39
0.55989265 -0.15062143 0.68212038 2.9517932e-39
0.56250203 -0.14933813 0.68261361 2.9517932e-39
0.56639862 -0.14844488 0.68149227 3.0439874e-39
0.56708521 -0.14832012 0.68317372 2.9521519e-39
0.57171929 -0.14746787 0.68243927 3.136183e-39
0.6285997 -0.29431081 0.68567669 2.8599577e-39
0.6260615 -0.29191649 0.68603247 2.8599577e-39
0.62386703 -0.2880317 0.68600804 2.8599577e-39
0.6248951 -0.29022932 0.68483621 2.8599577e-39
0.62285948 -0.28642714 0.68463451 2.8599577e-39
0.62084711 -0.28264487 0.68441349 2.8599577e-39
0.62177259 -0.28420699 0.68587786 2.8599577e-39
0.61976528 -0.28043455 0.68565559 2.8599577e-39
0.61776382 -0.27667302 0.68543386 2.8599577e-39
0.61902684 -0.27786848 0.6859265 3.6011072e-39
0.61669099 -0.27448046 0.68667006 5.9016624e-39
0.61470032 -0.2707395 0.68644762 1.1616651e-38
0.61576802 -0.27292222 0.68521279 1.1340067e-38
0.61194581 -0.2671833 0.68459523 1.1708845e-38
0.61340773 -0.26900214 0.68542212 1.1616651e-38
0.61000359 -0.26459062 0.68685782 1.1708845e-38
0.60854924 -0.2627812 0.68603313 1.1708845e-38
0.60564518 -0.25916839 0.68438685 1.1708845e-38
0.60709637 -0.26097381 0.68520957 1.1708845e-38
0.60373288 -0.25661427 0.68663907 1.1708845e-38
0.60156238 -0.25391844 0.68541533 1.1708845e-38
0.59925056 -0.25115895 0.68436551 1.1708845e-38
0.59592658 -0.24685697 0.68580085 1.1708485e-38
0.59750319 -0.2487063 0.68644613 1.1708845e-38
0.59291238 -0.24322744 0.68435538 9.2173938e-39
0.59437537 -0.24502112 0.68512934 1.0878361e-38
0.59132665 -0.24087198 0.68626422 1.0601413e-38
0.58916461 -0.23820502 0.68508053 8.4787455e-39
0.56032538 -0.23495463 0.68609977 7.3875544e-39
0.58694941 -0.23501907 0.68649912 1.0601413e-38
0.58408302 -0.23148386 0.68492705 7.9244886e-39
0.58551538 -0.23325042 0.6857127 9.3088691e-39
0.58262479 -0.22946294 0.68544209 8.7549737e-39
0.58046508 -0.2265723 0.68555915 8.8475309e-39
0.57830387 -0.2236885 0.68568414 9.1241177e-39
0.57545054 -0.21994543 0.68541205 9.3095894e-39
0.57686263 -0.22169024 0.68619776 1.0047516e-38
0.57404006 -0.21820264 0.68462718 9.2173924e-39
0.571612 -0.21499214 0.68638325 1.1524092e-38
0.56808102 -0.21122128 0.68573236 1.1708845e-38
0.55879706 -0.20970775 0.68523675 1.1708845e-38
0.56532854 -0.20835632 0.68539089 1.1708845e-38
0.56258845 -0.20550427 0.68505096 1.1708845e-38
0.5598582 -0.20266242 0.68471229 1.1708845e-38
0.55633068 -0.1987108 0.68541193 1.1247872e-38
0.55811036 -0.20058036 0.685673 1.1708845e-38
0.55467272 -0.19667518 0.68627214 9.2199497e-39
0.55118674 -0.19298273 0.68568844 3.5049614e-39
0.55292749 -0.19482665 0.68597996 4.8875217e-39
0.54885089 -0.18933311 0.6861766 2.8599577e-39
0.54992276 -0.1913318 0.68478364 2.8599577e-39
0.53872335 -0.18662657 0.68645346 1.143226e-38
0.54707211 -0.18690866 0.68467736 2.8599577e-39
0.54541707 -0.18411738 0.68556857 2.8599577e-39
0.54659998 -0.18572955 0.68656611 2.8599577e-39
0.54392415 -0.18172729 0.68582791 2.8599577e-39
0.54199982 -0.17892691 0.68496346 2.8599577e-39
0.53977484 -0.17536369 0.6853537 2.8599577e-39
0.54095107 -0.17696653 0.68634653 2.8599577e-39
0.53873289 -0.17341472 0.68673301 2.8599577e-39
0.53746557 -0.16944653 0.68586719 2.8599577e-39
0.53755891 -0.16636722 0.68574321 2.8599577e-39
0.5382067 -0.16309811 0.68573254 2.8599577e-39
0.53989041 -0.16136241 0.68520063 2.8599577e-39
0.54102993 -0.16060761 0.6862427 2.8599577e-39
0.54269373 -0.15883748 0.6840483 2.8599577e-39
0.54412979 -0.157998 0.68598354 2.8599577e-39
0.54701144 -0.15607965 0.68602931 2.8599577e-39
0.549559 -0.15500011 0.68525624 2.8599577e-39
0.55212086 -0.15391456 0.68447882 2.8599577e-39
0.55419058 -0.15231062 0.68689191 2.8599577e-39
0.55677217 -0.15121473 0.68611693 2.8599577e-39
0.55936807 -0.1501127 0.68533772 2.9517932e-39
0.56317765 -0.1490403 0.68557268 2.9517932e-39
0.56811297 -0.14813338 0.68569088 2.8599577e-39
0.5724045 -0.14734338 0.6841262 2.8599577e-39
0.57308865 -0.14721906 0.68581069 2.8599577e-39
0.57776314 -0.14635937 0.68508577 2.8599577e-39
0.6306358 -0.29585898 0.68841493 2.8599577e-39
0.62619591 -0.29140019 0.68839681 2.8599577e-39
0.62736058 -0.29308468 0.68959129 2.8599577e-39
0.62509942 -0.28946 0.68838149 2.8599577e-39
0.62291205 -0.28558919 0.688353 2.8599577e-39
0.62400484 -0.28752273 0.6883682 2.8599577e-39
0.62182122 -0.28365856 0.68833983 2.8599577e-39
0.62037939 -0.28109512 0.68830943 2.8599577e-39
0.61761332 -0.27603763 0.68812627 2.8599577e-39
0.61863285 -0.27764231 0.68946958 2.8599577e-39
0.61654299 -0.27385086 0.68935513 6.0860508e-39
0.61437654 -0.27003092 0.68933702 1.0971647e-38
0.61562192 -0.27229571 0.68790191 1.0510675e-38
0.61291724 -0.26821548 0.6885097 1.1708845e-38
0.61145961 -0.26640207 0.68768328 1.1708845e-38
0.60807401 -0.26201475 0.68910569 1.1708845e-38
0.60952425 -0.26381886 0.68992972 1.1708845e-38
0.60517836 -0.25841248 0.6874603 1.1708845e-38
0.60662538 -0.2602126 0.68828249 1.1708845e-38
0.6033392 -0.25589913 0.68961847 1.1708845e-38
0.6011138 -0.25318223 0.68846714 1.1708845e-38
0.59886813 -0.25019893 0.68860406 1.1708845e-38
0.59572423 -0.24624889 0.68856418 1.1708845e-38
0.59725004 -0.24807175 0.68926585 1.1708845e-38
0.59421551 -0.2444355 0.68784559 1.1708845e-38
0.59223437 -0.24169664 0.68853647 1.1708485e-38
0.58981431 -0.23855875 0.6880846 1.1616649e-38
0.58687127 -0.23448823 0.68911546 1.1708845e-38
0.58834046 -0.23652051 0.68859953 1.1708844e-38
0.58544499 -0.23272569 0.68832326 1.1708845e-38
0.58327365 -0.22982711 0.6884408 1.1708485e-38
0.58039999 -0.22606106 0.68816602 1.1708845e-38
0.57811475 -0.22288965 0.68970478 1.1524452e-38
0.57524419 -0.21938439 0.6881963 1.1524092e-38
0.57667857 -0.22113594 0.68895006 1.1432257e-38
0.57381147 -0.21763493 0.68744349 1.1524092e-38
0.54328704 -0.21510001 0.68759459 1.0694336e-38
0.57139337 -0.21443537 0.68918133 1.1708845e-38
0.5690431 -0.21173644 0.68832266 1.1708845e-38
0.56537831 -0.20792317 0.68786132 1.1708845e-38
0.56720823 -0.20982723 0.68809164 1.1708845e-38
0.56264317 -0.20507732 0.68751705 1.1708845e-38
0.56002295 -0.20206295 0.68830502 1.1708845e-38
0.56187153 -0.203741 0.68975425 1.1708845e-38
0.5566048 -0.19816446 0.68886393 9.1277555e-39
0.55835599 -0.20001869 0.68915993 1.1708845e-38
0.55485797 -0.19631486 0.68856859 6.2704407e-39
0.55137718 -0.19262937 0.68798018 3.0443461e-39
0.55311543 -0.19446982 0.68827403 3.5971556e-39
0.5500946 -0.1907603 0.68836892 2.8599577e-39
0.56164557 -0.1913857 0.68799597 6.8163389e-39
0.54821748 -0.187756 0.68868965 2.8599577e-39
0.54553932 -0.18375044 0.6879496 2.8599577e-39
0.54672015 -0.18535966 0.68894583 2.8599577e-39
0.54389399 -0.18097675 0.68883061 2.8599577e-39
0.54222488 -0.17840493 0.6884802 2.9521561e-39
0.5399065 -0.17501396 0.68772423 2.8599577e-39
0.54087943 -0.17575961 0.68898028 2.9521561e-39
0.53889 -0.17217284 0.68821937 3.0443545e-39
0.54027838 -0.17320023 0.68976998 3.0443545e-39
0.53811085 -0.16910113 0.68882519 2.9521575e-39
0.53783286 -0.16608402 0.68792439 2.8599577e-39
0.53851885 -0.1632266 0.68870932 2.8599577e-39
0.54199457 -0.16019082 0.68836099 2.8599577e-39
0.5446254 -0.15800424 0.68829745 2.8599577e-39
0.54614687 -0.15699685 0.68969101 2.8599577e-39
0.54726791 -0.15580805 0.68823403 2.8599577e-39
0.55034697 -0.15394235 0.68804568 2.8599577e-39
0.55625975 -0.15070717 0.68930423 2.8599577e-39
0.55965185 -0.14969096 0.68877649 2.8599577e-39
0.5638625 -0.14891584 0.68724126 2.8599577e-39
0.56454641 -0.14879157 0.68890744 2.8599577e-39
0.56913882 -0.14794698 0.6882031 2.8599577e-39
0.57353038 -0.14702189 0.68779171 2.8599577e-39
0.57788372 -0.14606749 0.6874674 2.8599577e-39
0.63267016 -0.29740584 0.6911509 2.8599577e-39
0.62749255 -0.29256731 0.69194597 2.8599577e-39
0.62581635 -0.28978983 0.69133228 2.8599577e-39
0.62414217 -0.28701538 0.69072074 2.8599577e-39
0.62254119 -0.28399622 0.69128257 2.8599577e-39
0.62036741 -0.28015101 0.69124925 2.8599577e-39
0.61877829 -0.27715373 0.69180822 2.8599577e-39
0.61710089 -0.27439877 0.69122207 3.9659339e-39
0.61547649 -0.27167189 0.69057959 8.8511714e-39
0.61336845 -0.26844081 0.69175088 1.1708845e-38
0.61103714 -0.26565444 0.69068414 1.1708845e-38
0.60796446 -0.26142597 0.69174016 1.1708845e-38
0.60951072 -0.26327354 0.69244939 1.1708845e-38
0.60642052 -0.25958103 0.69103193 1.1708845e-38
0.58738178 -0.25664055 0.69144219 1.0878003e-38
0.60438865 -0.25678438 0.69173211 1.1708845e-38
0.60184062 -0.25355589 0.69137692 1.1708845e-38
0.59880668 -0.24939303 0.69244069 1.1708845e-38
0.60030824 -0.25172526 0.69067222 1.1708845e-38
0.59726691 -0.2475646 0.6917547 1.1708845e-38
0.59470457 -0.24435343 0.6914506 1.1708845e-38
0.59265977 -0.24158917 0.69221288 1.1708845e-38
0.58972859 -0.23801933 0.69070244 1.1708845e-38
0.5911597 -0.23978789 0.69149727 1.1708845e-38
0.58821684 -0.23571961 0.69251555 1.1708845e-38
0.58608031 -0.23307966 0.69132674 1.1708845e-38
0.58341819 -0.22951056 0.69161695 1.1708845e-38
0.58099234 -0.22640345 0.69121701 1.1708845e-38
0.57782578 -0.22228913 0.69256961 1.1708845e-38
0.57955271 -0.2246455 0.69046032 1.1616289e-38
0.57639331 -0.22054009 0.69181502 1.1708845e-38
0.57424796 -0.21792075 0.69068503 1.1708844e-38
0.57183331 -0.21472657 0.69240808 1.1708845e-38
0.56899118 -0.21125668 0.6909073 1.1708845e-38
0.57041132 -0.21299057 0.6916573 1.1708845e-38
0.56550044 -0.20729659 0.6914885 1.1708845e-38
0.56729639 -0.20918241 0.69175947 1.1708845e-38
0.56372142 -0.20542075 0.69120288 1.1708845e-38
0.56028819 -0.20150785 0.69175267 1.1708845e-38
0.5620454 -0.20336778 0.6920526 1.1708845e-38
0.55853528 -0.19965252 0.69145364 1.1616651e-38
0.55591464 -0.19687876 0.6910063 5.625437e-39
0.55156708 -0.19227716 0.69026446 2.9517932e-39
0.55339599 -0.19393691 0.69170004 2.8599577e-39
