# .PCD v0.7 - Point Cloud Data file format
VERSION 0.7
FIELDS x y z rgb
SIZE 4 4 4 4
TYPE F F F F
COUNT 1 1 1 1
WIDTH 1010
HEIGHT 1
VIEWPOINT 0 0 0 1 0 0 0
POINTS 1010
DATA ascii
0.48814923 0.084688224 0.63987839 8.3064685e-39
0.49094462 0.0863287 0.6410796 8.3064699e-39
0.50281924 0.085362449 0.64093202 1.0786889e-38
0.49353129 0.088090107 0.63984722 8.3983054e-39
0.49597216 0.08969032 0.64163029 8.9500625e-39
0.49873435 0.091490857 0.64016652 9.2259417e-39
0.50381815 0.094895959 0.64073533 9.1341006e-39
0.50662106 0.096727237 0.63926917 8.9500625e-39
0.50972897 0.098449275 0.640131 8.8582256e-39
0.51284891 0.10017805 0.64099616 9.0419022e-39
0.51866174 0.10375606 0.64067107 8.5823435e-39
0.52159971 0.10547105 0.6418668 8.4905066e-39
0.52542341 0.10752005 0.63905269 1.0145774e-38
0.52881414 0.10932445 0.63964635 9.3181415e-39
0.54267621 0.11522969 0.63912427 8.3064685e-39
0.54672265 0.11698163 0.64166844 8.3064685e-39
0.5525189 0.11925349 0.63910604 8.3061098e-39
0.44935769 0.052560665 0.64427149 8.1132154e-39
0.45180967 0.052625686 0.64434618 8.1132154e-39
0.45509452 0.052712791 0.64444619 8.1132154e-39
0.45756984 0.05277843 0.64452159 8.1132154e-39
0.45922631 0.052822359 0.64457208 8.1132154e-39
0.45072985 0.057061613 0.64476144 8.1213682e-39
0.45352238 0.060903892 0.64427316 8.3064685e-39
0.45552528 0.063288361 0.64232075 8.3064685e-39
0.4564476 0.064779967 0.64358795 8.3064685e-39
0.45736957 0.06627088 0.64485443 8.3064685e-39
0.46005696 0.067943409 0.64319694 8.3064685e-39
0.46338004 0.069584489 0.64331543 8.3064685e-39
0.46639228 0.071198955 0.6439724 8.3064685e-39
0.46924579 0.072859019 0.64351541 8.3064685e-39
0.47206116 0.074522287 0.64314687 8.3064685e-39
0.47490531 0.076135159 0.64414465 8.3064685e-39
0.47773355 0.077876091 0.64240915 8.3064685e-39
0.48052388 0.079493813 0.64353657 8.3064685e-39
0.48431388 0.082011215 0.64311254 8.3064685e-39
0.48827565 0.084565453 0.64245814 8.3983054e-39
0.49041474 0.086114742 0.64466769 8.3983054e-39
0.49313962 0.087890051 0.64322197 8.3983082e-39
0.49840945 0.091291703 0.64342612 9.9617355e-39
0.50233877 0.093894064 0.64297342 9.4099826e-39
0.50649059 0.096544802 0.64222586 9.5018181e-39
0.50959063 0.09826228 0.6430912 9.1341034e-39
0.51210988 0.099893555 0.64483678 9.5018195e-39
0.51537138 0.10181632 0.64276314 9.134102e-39
0.51781696 0.10344395 0.6446507 8.6741846e-39
0.52496314 0.10726093 0.6424638 9.9617355e-39
0.52834237 0.10905922 0.64306372 9.5940166e-39
0.53176028 0.11086991 0.6436342 8.6741874e-39
0.5364629 0.11291044 0.6424135 8.4901451e-39
0.54100317 0.11473987 0.64419699 8.3064685e-39
0.46772444 0.042878184 0.64684486 8.3064685e-39
0.45742685 0.046084542 0.64696515 4.3331946e-39
0.44909996 0.055444054 0.64751172 8.0284607e-39
0.4515332 0.05853571 0.64621234 8.3064699e-39
0.45245028 0.060018323 0.64747 8.3064699e-39
0.45536134 0.063877404 0.6467973 8.3064685e-39
0.47704071 0.063136667 0.6475215 8.8578654e-39
0.45766121 0.066197865 0.64716315 8.3064685e-39
0.46065488 0.067846522 0.64640009 8.3064685e-39
0.46358556 0.069497213 0.64576977 8.3064685e-39
0.466474 0.071095631 0.64662349 8.3064685e-39
0.46931398 0.072693363 0.64757568 8.3064685e-39
0.47209889 0.074407637 0.64586675 8.3064685e-39
0.47493696 0.076016799 0.64686692 8.3064685e-39
0.47775906 0.07775344 0.64514577 8.3064685e-39
0.48024684 0.079330891 0.64674222 8.3064685e-39
0.48289794 0.081062809 0.64533448 8.3064685e-39
0.48502183 0.0826011 0.64752883 8.3064685e-39
0.48770887 0.0843518 0.64610314 8.3983054e-39
0.49265993 0.087678798 0.64671504 8.4901465e-39
0.49552381 0.089478411 0.64507687 9.3177814e-39
0.49866888 0.088985674 0.6468755 9.0419064e-39
0.49795318 0.091074638 0.64686924 1.0513494e-38
0.5008499 0.09289518 0.64522433 9.594018e-39
0.50326568 0.094496608 0.64706677 8.8582228e-39
0.50636077 0.096363261 0.64516807 8.9500611e-39
0.50887674 0.097987533 0.64689243 8.9500639e-39
0.47923574 0.10142207 0.64636636 8.3983068e-39
0.51442236 0.10149378 0.64689416 9.7776946e-39
0.52115345 0.10521949 0.64525115 8.5823449e-39
0.52450573 0.10700337 0.64585429 9.7777002e-39
0.52790356 0.10880068 0.64641762 9.7776974e-39
0.53132319 0.1106076 0.64697587 8.7660243e-39
0.53535903 0.11252759 0.6466921 8.4901465e-39
0.44825441 0.053895403 0.64893848 7.7511661e-39
0.46573642 0.051093068 0.64841914 8.3064685e-39
0.44932592 0.055383544 0.64992273 8.3064685e-39
0.45024863 0.056900732 0.64976466 8.3064685e-39
0.45171043 0.059166703 0.65010136 8.3064685e-39
0.45382497 0.062240891 0.64935535 8.3064685e-39
0.45803803 0.066133678 0.64932215 8.3064685e-39
0.46089375 0.067713395 0.65017569 8.3064685e-39
0.46367294 0.069397867 0.64840651 8.3064685e-39
0.46655035 0.070992202 0.64927149 8.3064685e-39
0.46935749 0.072583377 0.65026963 8.3064685e-39
0.47213644 0.074293487 0.64857483 8.3064685e-39
0.47477347 0.075876102 0.64988691 8.3064685e-39
0.47756463 0.077604905 0.64821827 8.3064685e-39
0.47972846 0.079139024 0.65031099 8.3064685e-39
0.48235583 0.080862835 0.64894068 8.3064685e-39
0.48714602 0.0841396 0.64972347 8.3983054e-39
0.48984075 0.085895792 0.6483053 8.3983068e-39
0.49222499 0.087474599 0.65012205 8.8582256e-39
0.49507827 0.089267828 0.64850187 9.6858591e-39
0.49749953 0.090858907 0.6502912 1.0513494e-38
0.5003857 0.092672944 0.64866412 9.1341034e-39
0.50275958 0.094264187 0.65055358 8.5823463e-39
0.50567162 0.096098036 0.64893031 8.4905052e-39
0.50796193 0.097683117 0.65097111 8.5823449e-39
0.51117808 0.099580146 0.64894152 8.9500611e-39
0.51365507 0.10120149 0.65073717 9.2259389e-39
0.51738429 0.10319979 0.64800882 8.9500611e-39
0.5207119 0.10496978 0.6486122 8.7660257e-39
0.52408791 0.10675351 0.64917141 9.6858591e-39
0.52743185 0.10853769 0.64980203 9.8698958e-39
0.53070116 0.11031471 0.65056318 8.9500639e-39
0.53446144 0.11218216 0.65065813 8.6741832e-39
0.53824484 0.11406112 0.65075362 8.3064685e-39
0.54205167 0.1159517 0.65084958 8.3064685e-39
0.54672998 0.11800709 0.64978188 8.3064685e-39
0.44870475 0.053817194 0.65235484 7.8437163e-39
0.44962472 0.055328906 0.65220141 8.3064685e-39
0.4506948 0.056815013 0.65318459 8.3064685e-39
0.45200595 0.059105754 0.65238428 8.3064685e-39
0.45422238 0.06213836 0.65285629 8.5830512e-39
0.45529115 0.064471014 0.65108687 8.3064685e-39
0.45661223 0.064451545 0.65305579 8.6756055e-39
0.45845512 0.066023245 0.65278804 8.490857e-39
0.46098614 0.067618348 0.65278757 8.3064685e-39
0.46380311 0.06924966 0.65233982 8.3064685e-39
0.4665997 0.070886299 0.65195155 8.3064685e-39
0.46925426 0.072457582 0.65318644 8.3064685e-39
0.4720034 0.074160367 0.65154296 8.3064685e-39
0.47445565 0.075717986 0.65313679 8.3064685e-39
0.47711885 0.077426895 0.65167212 8.3064685e-39
0.47921348 0.078948438 0.65385616 8.3064685e-39
0.48183036 0.080665827 0.65250236 8.3064685e-39
0.48447007 0.082395583 0.65113169 8.3064685e-39
0.48658693 0.083928853 0.65331912 8.3983068e-39
0.48939306 0.085694782 0.65173024 8.4901479e-39
0.49179125 0.087271452 0.65351039 9.3177814e-39
0.49463469 0.089058436 0.65190685 1.0421293e-38
0.49704432 0.090643883 0.6536985 9.8698972e-39
0.49992019 0.092451498 0.65208852 9.0419008e-39
0.50502461 0.095840305 0.65261054 8.3983068e-39
0.51025367 0.099269241 0.65301335 8.5823449e-39
0.5169636 0.10295861 0.65133315 9.0419036e-39
0.52025855 0.10471919 0.65197408 9.0422637e-39
0.52335453 0.10645229 0.65292388 9.5018181e-39
0.52660632 0.10821617 0.65367246 9.9617369e-39
0.53033191 0.11006625 0.65377641 9.2259403e-39
0.53408051 0.11192767 0.65388083 8.7663845e-39
0.53785193 0.11380053 0.65398598 8.3983082e-39
0.55156773 0.12310937 0.65184283 8.3061098e-39
0.44915313 0.053739324 0.65575635 7.9362679e-39
0.44992256 0.055274446 0.65447271 8.3064685e-39
0.45060521 0.055989139 0.65609562 8.3064685e-39
0.45232627 0.058786351 0.65507656 8.4912157e-39
0.45391166 0.059794124 0.65612757 8.6756055e-39
0.45512134 0.061339229 0.65550995 8.6756055e-39
0.45680434 0.062885836 0.65549564 8.6756055e-39
0.4584924 0.064437144 0.65548134 8.6756055e-39
0.46018574 0.065993197 0.65546691 8.6756055e-39
0.46141309 0.067557886 0.6548444 8.6756055e-39
0.46235377 0.067549989 0.65606278 8.3064685e-39
0.46385241 0.069093861 0.65638065 8.3064685e-39
0.46652573 0.070767574 0.6548177 8.3064685e-39
0.46895486 0.072310612 0.65640223 8.3064685e-39
0.47169483 0.074007869 0.65477574 8.3064685e-39
0.47532344 0.076395482 0.65586847 8.3064685e-39
0.48130834 0.080470145 0.65604031 8.3064685e-39
0.4839325 0.082192793 0.65469396 8.3064685e-39
0.48619837 0.083741359 0.65663463 8.3983054e-39
0.48896903 0.085497811 0.6551019 8.6741832e-39
0.49135709 0.087069154 0.65688223 9.5936592e-39
0.49419004 0.08884982 0.65529633 1.0145415e-38
0.49937946 0.092220098 0.65560871 8.8582256e-39
0.50219178 0.094023637 0.65411508 8.5823435e-39
0.50444901 0.095594436 0.65616632 8.3983068e-39
0.5072909 0.097417369 0.65466881 8.3983082e-39
0.50986379 0.099042892 0.65628183 8.3983054e-39
0.51319498 0.10095912 0.65411282 8.674186e-39
0.51625407 0.10267196 0.65505934 9.0419036e-39
0.51932454 0.10439115 0.65600944 9.2259431e-39
0.52255899 0.10614202 0.65674573 9.2259431e-39
0.52624381 0.10797388 0.65686792 9.594018e-39
0.54158843 0.11567456 0.65417212 8.3064685e-39
0.54523301 0.11753918 0.65451562 8.3064685e-39
0.46223664 0.048069064 0.6589855 4.0566077e-39
0.44945073 0.05368764 0.65801418 8.0284607e-39
0.4515709 0.05620572 0.6581617 8.6752468e-39
0.45427412 0.058998801 0.65827626 8.4908584e-39
0.45734516 0.062100098 0.65735662 8.490857e-39
0.45974678 0.065106519 0.65891796 8.3064685e-39
0.46190917 0.067401409 0.65951341 8.3064685e-39
0.46394593 0.068996973 0.65896106 8.3064685e-39
0.4662354 0.070626065 0.65801674 8.3064685e-39
0.46865714 0.072164498 0.65959948 8.3064685e-39
0.47138798 0.073856264 0.65798974 8.3064685e-39
0.47611314 0.077059612 0.65870583 8.3064685e-39
0.47870189 0.078759111 0.6573776 8.3064685e-39
0.48105919 0.080309451 0.65913808 8.3064685e-39
0.48482195 0.082801126 0.65874827 8.3064685e-39
0.48854518 0.085301742 0.65845633 8.8582242e-39
0.49374825 0.0886425 0.65866482 9.5018195e-39
0.4965874 0.090429544 0.6570915 9.4099812e-39
0.49882668 0.091987967 0.65912884 8.9500625e-39
0.50162768 0.093784682 0.65765285 8.4905066e-39
0.5041315 0.095388331 0.65932387 8.3983054e-39
0.50695699 0.097204298 0.65785259 8.3983054e-39
0.50985301 0.098876402 0.65898216 8.3983054e-39
0.51285589 0.1006531 0.65863502 8.4901465e-39
0.515876 0.10243976 0.65828884 9.2259403e-39
0.51872945 0.10411974 0.65953892 9.5018181e-39
0.49441391 0.10618108 0.65903825 8.3061098e-39
0.52979231 0.10978978 0.65721363 9.594018e-39
0.53336024 0.11161559 0.6575613 8.9500625e-39
0.53694767 0.11345141 0.65791076 8.4901451e-39
0.54055482 0.1152973 0.65826219 8.3064685e-39
0.46325189 0.041931354 0.66144687 8.2114366e-39
0.46169645 0.049463086 0.66257381 7.0990635e-39
0.46444249 0.049569465 0.66088533 4.240999e-39
0.44990194 0.053647365 0.66000879 7.8433604e-39
0.45146939 0.055860199 0.66152167 8.213561e-39
0.45663875 0.061944187 0.66123962 8.3064685e-39
0.45821506 0.064169332 0.66276032 8.3064685e-39
0.45998263 0.065723531 0.66261935 8.3064685e-39
0.46302265 0.068104438 0.6618036 8.3064685e-39
0.46608114 0.07049983 0.66098291 8.3064685e-39
0.46967423 0.072856955 0.66205692 8.3064685e-39
0.47354162 0.075371496 0.66002524 8.3064685e-39
0.47586191 0.07690718 0.66180336 8.3064685e-39
0.47845179 0.078602552 0.66047519 8.3064685e-39
0.48095793 0.080167934 0.66199309 8.3064685e-39
0.48459056 0.082637459 0.66179895 8.3064685e-39
0.48823041 0.085121065 0.6616286 8.9500639e-39
0.49092561 0.086868107 0.66023326 9.9617355e-39
0.49328476 0.088433079 0.66204906 9.0422623e-39
0.49604577 0.090204142 0.66059417 9.2259403e-39
0.49854088 0.091795377 0.66223484 8.9500653e-39
0.50265908 0.09439759 0.66149473 8.3983068e-39
0.50686496 0.09702903 0.66066748 8.3983054e-39
0.50984222 0.098710626 0.66167086 8.3983054e-39
0.5126524 0.10037018 0.66293365 8.4901451e-39
0.51567894 0.10223756 0.66124296 9.0419022e-39
0.51822436 0.10386413 0.66292244 9.5936592e-39
0.52187502 0.10585154 0.66038942 9.0422623e-39
0.52528632 0.10763275 0.66088682 9.3181415e-39
0.52881813 0.10944051 0.66124207 9.0419008e-39
0.53236914 0.11125808 0.66159928 8.5823463e-39
0.53580189 0.11306151 0.66214806 8.3983054e-39
0.54270613 0.11688802 0.66062713 8.3064685e-39
0.54623258 0.11872902 0.66113091 8.3061098e-39
0.45761946 0.049305156 0.66508067 8.3898023e-39
0.44969925 0.053046346 0.66398138 7.4735157e-39
0.45002967 0.052045617 0.66525006 6.9185721e-39
0.44998986 0.054973885 0.66531545 7.9359105e-39
0.45356002 0.058811583 0.66353941 8.3061112e-39
0.45512843 0.061025817 0.66505325 8.3064699e-39
0.45807266 0.06406007 0.66569847 8.3064685e-39
0.46008325 0.065634355 0.66516477 8.3064685e-39
0.46311739 0.068010077 0.66435945 8.3064685e-39
0.46616989 0.070400223 0.66354924 8.3064685e-39
0.46815956 0.07188499 0.66579252 8.3064685e-39
0.47073442 0.073550537 0.66443288 8.3064685e-39
0.47324875 0.075159281 0.66453087 8.3064685e-39
0.47577387 0.076774813 0.6646328 8.3064685e-39
0.47835714 0.078465641 0.66331744 8.3064685e-39
0.48075169 0.080013961 0.66499621 8.3064685e-39
0.48435739 0.082474269 0.6648379 8.3064685e-39
0.48798656 0.084950633 0.6646781 8.9500625e-39
0.49050319 0.086669154 0.66355413 1.0605332e-38
0.49302983 0.088253461 0.66510457 9.0422637e-39
0.49577564 0.090018116 0.66367477 9.0422637e-39
0.49841601 0.091626786 0.6650883 9.134102e-39
0.5025481 0.094225653 0.66432607 8.3983082e-39
0.50686073 0.096867874 0.663342 8.3983054e-39
0.50964957 0.098517418 0.6646111 8.3983054e-39
0.51503587 0.10196488 0.66482162 8.8582256e-39
0.52145743 0.10560624 0.66363806 9.1341006e-39
0.52470475 0.107356 0.66435689 9.0419022e-39
0.52796626 0.10911346 0.66507882 8.4901451e-39
0.53128624 0.11088625 0.66574305 8.3983054e-39
0.53869909 0.11477597 0.66345561 8.3064685e-39
0.5421958 0.11660137 0.66396368 8.3064685e-39
0.54571021 0.11843606 0.66447437 8.3061098e-39
0.55048048 0.11898814 0.6658352 8.4904982e-39
0.53285307 0.13296422 0.66553909 8.5819876e-39
0.45052421 0.050546911 0.66714817 6.0852619e-39
0.45409834 0.049180668 0.66672647 5.8083247e-39
0.45029753 0.052726701 0.66751915 7.3809641e-39
0.45055062 0.055673569 0.66710484 8.1213682e-39
0.45207059 0.057911709 0.6673249 8.3061126e-39
0.45311135 0.059381042 0.66832983 8.3061112e-39
0.45985943 0.059577983 0.66841638 7.4728052e-39
0.45617667 0.062456589 0.66740704 8.3064685e-39
0.45817673 0.063974649 0.66822678 8.3064685e-39
0.46018344 0.065545529 0.66769987 8.3064685e-39
0.46319982 0.067914866 0.66692364 8.3064685e-39
0.46611845 0.070286065 0.66632617 8.3064685e-39
0.46802926 0.071759194 0.66868043 8.3064685e-39
0.47063613 0.073424488 0.66727316 8.3064685e-39
0.47311771 0.074967027 0.6687566 8.3064685e-39
0.47568625 0.07664308 0.66744852 8.3064685e-39
0.4782629 0.078329384 0.6661458 8.3064685e-39
0.48053008 0.079858765 0.66800845 8.3064685e-39
0.48416108 0.082316592 0.66780663 8.3064685e-39
0.48781389 0.084790379 0.66760623 8.7663845e-39
0.49034274 0.086506628 0.66646534 1.0697529e-38
0.49296373 0.088100746 0.6678642 9.2259431e-39
0.49566263 0.089855082 0.66650736 9.1341034e-39
0.45705661 0.091994546 0.66670501 9.0419036e-39
0.49830204 0.091460489 0.66791284 9.4099784e-39
0.46882215 0.095765039 0.66719282 8.3064685e-39
0.50238836 0.094047152 0.66721594 8.4901451e-39
0.5066703 0.096679136 0.66627532 8.3983054e-39
0.50903189 0.098259427 0.66815042 8.3983054e-39
0.51202208 0.10010489 0.66649264 8.4901451e-39
0.51439708 0.10169405 0.66837609 8.8582214e-39
0.51781952 0.10362586 0.66614711 9.5940194e-39
0.52104229 0.10536237 0.66686767 9.5018195e-39
0.52427912 0.10710648 0.66759151 8.9500611e-39
0.52732474 0.10882341 0.66860384 8.3983068e-39
0.53460735 0.11266472 0.66642976 8.3983054e-39
0.53789306 0.11444236 0.66718841 8.3064685e-39
0.54119313 0.11622775 0.66795033 8.3064685e-39
0.54450768 0.11802097 0.66871554 8.3061098e-39
0.45091617 0.050474774 0.6705516 5.9008748e-39
0.45078775 0.052656014 0.67076099 7.1033136e-39
0.45033836 0.05557929 0.67014951 8.2139183e-39
0.45111269 0.057751272 0.67157644 8.2139197e-39
0.4542459 0.06081482 0.67052579 8.3064685e-39
0.45624298 0.062325135 0.67133236 8.3064685e-39
0.45812404 0.063874803 0.67099494 8.3064685e-39
0.46001261 0.065430664 0.67065609 8.3064685e-39
0.4619087 0.066992752 0.67031586 8.3064685e-39
0.46381247 0.068561107 0.66997427 8.3064685e-39
0.46681169 0.070884898 0.67059261 8.3064685e-39
0.47049946 0.073294684 0.67016011 8.3064685e-39
0.47297454 0.074833184 0.67164278 8.3064685e-39
0.47559899 0.076511994 0.67025077 8.3064685e-39
0.4780066 0.07811226 0.67053902 8.3064685e-39
0.48038411 0.079713628 0.6708914 8.3064685e-39
0.48284537 0.081395432 0.66980308 8.3064685e-39
0.48518711 0.082936928 0.67156386 8.3064685e-39
0.48767251 0.084634982 0.67047364 8.5823463e-39
0.49025393 0.086284772 0.67057878 1.0513491e-38
0.49289829 0.087948777 0.67061079 9.4099812e-39
0.49559087 0.089698553 0.6692664 9.2259417e-39
0.4982143 0.09129867 0.67068613 9.5936592e-39
0.50084502 0.09305463 0.66947138 8.5823449e-39
0.50325406 0.094631158 0.67123461 8.3983082e-39
0.50607556 0.096429907 0.66978014 8.3983054e-39
0.50849843 0.098015495 0.67155099 8.3983054e-39
0.51139605 0.099841394 0.67002749 8.4901451e-39
0.51381063 0.10143269 0.67183852 8.7660243e-39
0.51741701 0.10338897 0.66935307 9.5936592e-39
0.52049601 0.10509797 0.67026597 9.8695343e-39
0.52345157 0.10679096 0.67137098 8.9500625e-39
0.53042203 0.11055354 0.66956347 8.3983054e-39
0.53360462 0.11230297 0.67042601 8.3983054e-39
0.53680015 0.11405951 0.67129195 8.3064685e-39
0.450894 0.050376102 0.67460763 6.8224766e-39
0.46173739 0.049218971 0.67325711 5.0707596e-39
0.46361643 0.049241714 0.67428279 2.7658689e-39
0.45067993 0.055528991 0.67227936 8.2139183e-39
0.45157477 0.058437698 0.67350602 8.3064685e-39
0.45495027 0.061431974 0.67474365 8.3064685e-39
0.45775837 0.063745901 0.67424929 8.3064685e-39
0.45964044 0.065296702 0.67391795 8.3064685e-39
0.46152991 0.066853702 0.6735853 8.3064685e-39
0.46342701 0.068416908 0.67325139 8.3064685e-39
0.46655113 0.070747942 0.67366433 8.3064685e-39
0.47036344 0.073165521 0.67303264 8.3064685e-39
0.47283441 0.074700281 0.67451084 8.3064685e-39
0.47543824 0.076372795 0.6731531 8.3064685e-39
0.47780329 0.077902824 0.67482388 8.3064685e-39
0.48026228 0.079572111 0.67372435 8.3064685e-39
0.48271716 0.081249341 0.67264748 8.3064685e-39
0.485053 0.082786962 0.67440563 8.3064685e-39
0.48756874 0.084485233 0.67327166 8.3983082e-39
0.49016559 0.086064272 0.67466718 1.0329454e-38
0.4928332 0.087797515 0.67334461 9.6858577e-39
0.49551922 0.089542732 0.67201293 9.3177814e-39
0.49779332 0.09108986 0.67393446 9.31778e-39
0.50045288 0.092845403 0.67267847 8.4901479e-39
0.50285459 0.094417155 0.67443848 8.3983068e-39
0.50566632 0.096209809 0.67299992 8.3064699e-39
0.50808179 0.097790554 0.67476773 8.3983054e-39
0.5109247 0.099603221 0.67332423 8.3983082e-39
0.51350397 0.10121689 0.6748879 8.674186e-39
0.51668763 0.10310024 0.67300439 9.4099798e-39
0.51962072 0.1047807 0.67410791 9.594018e-39
0.52641678 0.10848954 0.67247963 8.3983068e-39
0.5300442 0.11033638 0.67273808 8.30221e-39
0.5327419 0.11196705 0.67421043 8.3064685e-39
0.54001749 0.11582474 0.67214954 8.3064685e-39
0.54331529 0.11760939 0.67292064 8.3064685e-39
0.4521265 0.050391726 0.67528462 6.8224766e-39
0.45459607 0.050423045 0.67664069 6.8224766e-39
0.45707023 0.050454415 0.67799938 6.730281e-39
0.45057669 0.052536637 0.67512119 5.8083247e-39
0.45071658 0.055672333 0.67578298 6.6409188e-39
0.45211664 0.058129396 0.67618752 8.3064685e-39
0.4534868 0.059116788 0.67708814 8.3064685e-39
0.45525888 0.061370227 0.67690855 8.3064685e-39
0.45744199 0.063622206 0.67740899 8.3064685e-39
0.45927048 0.065163568 0.67715973 8.3064685e-39
0.46115345 0.066715494 0.67683458 8.3064685e-39
0.46304393 0.068273619 0.67650807 8.3064685e-39
0.46641931 0.07062529 0.67651987 8.3064685e-39
0.47022969 0.073037192 0.6758883 8.3064685e-39
0.47269636 0.074568212 0.67736232 8.3064685e-39
0.47525859 0.076231971 0.67607087 8.3064685e-39
0.47761732 0.07775794 0.67773944 8.3064685e-39
0.48014104 0.079431288 0.67654335 8.3064685e-39
0.48258954 0.081103973 0.67547774 8.3064685e-39
0.48491961 0.082637727 0.6772334 8.3064685e-39
0.48751616 0.084342882 0.67598081 8.3983082e-39
0.49005961 0.085911788 0.67744637 1.0053578e-38
0.49262094 0.087626681 0.67628318 1.0145775e-38
0.49519873 0.08935266 0.67511266 9.4099784e-39
0.49737489 0.090882316 0.67716324 8.5823449e-39
0.50006312 0.092637405 0.67586654 8.3983068e-39
0.5024575 0.094204403 0.67762351 8.3064699e-39
0.50525945 0.095991001 0.67620075 8.3064699e-39
0.50773871 0.097577855 0.67786407 8.3983054e-39
0.5106107 0.099390626 0.67638147 8.3983068e-39
0.51319897 0.10100226 0.67792082 8.6741832e-39
0.5174284 0.10365111 0.677176 9.5018195e-39
0.52256346 0.10646667 0.67521513 8.8582214e-39
0.5255869 0.10817021 0.67622793 8.3983082e-39
0.52873003 0.10989845 0.67709565 8.3064685e-39
0.53188562 0.1116336 0.67796689 8.3064685e-39
0.53592384 0.11371635 0.67508078 8.3064685e-39
0.53911859 0.11547273 0.6759547 8.3064685e-39
0.54239166 0.11724804 0.676745 8.3064685e-39
0.45030823 0.052666757 0.67909908 6.2707181e-39
0.45158958 0.055211086 0.67933589 8.1213668e-39
0.45438138 0.058340266 0.67963266 8.3064685e-39
0.45534235 0.060604542 0.67810047 8.3064685e-39
0.45685115 0.061592694 0.6792286 8.3064685e-39
0.45825267 0.063604854 0.67877007 8.3064685e-39
0.45938748 0.064348623 0.67961776 8.3064685e-39
0.46837515 0.064561658 0.67815101 8.3064685e-39
0.46117514 0.066617727 0.67944235 8.3064685e-39
0.46266317 0.068131186 0.67974484 8.3064685e-39
0.46629661 0.070504151 0.67934775 8.3064685e-39
0.47009867 0.072909728 0.67872643 8.3064685e-39
0.47255903 0.074436799 0.68019956 8.3064685e-39
0.47507983 0.076091886 0.6789735 8.3064685e-39
0.47743237 0.077613801 0.68063986 8.3064685e-39
0.4799794 0.079286098 0.67941046 8.3064685e-39
0.48246253 0.080959305 0.67829424 8.3064685e-39
0.48483872 0.082495898 0.67997003 8.3064685e-39
0.48746389 0.084201187 0.67867756 8.3983068e-39
0.48966825 0.085721642 0.68063354 9.9617355e-39
0.49350503 0.088290885 0.67890584 1.0145415e-38
0.49695897 0.090676002 0.6803726 8.5823463e-39
0.49967563 0.092430629 0.67903602 8.3064699e-39
0.50206274 0.093992896 0.68078995 8.3064699e-39
0.50488794 0.095778435 0.67933571 8.3064699e-39
0.50745147 0.097374596 0.6808666 8.3983054e-39
0.51160514 0.099985257 0.68016815 8.4901451e-39
0.51579255 0.10261714 0.67946303 9.3181401e-39
0.52168214 0.10614488 0.67902988 8.6741846e-39
0.52476352 0.10785329 0.67994821 8.3983082e-39
0.52802396 0.10959683 0.68064201 8.3064685e-39
0.53515267 0.11339309 0.67870843 8.3064685e-39
0.53853309 0.11517794 0.67932093 8.3064685e-39
0.54150271 0.11689442 0.68050361 8.3064685e-39
0.44992882 0.051630378 0.68147355 5.8083247e-39
0.45049667 0.052323811 0.68319881 6.4561758e-39
0.45313632 0.056062713 0.68161672 8.213561e-39
0.45383835 0.057489064 0.68313146 8.3057538e-39
0.45697314 0.061257061 0.68210959 8.3064685e-39
0.45841426 0.06343399 0.68377727 8.3064685e-39
0.46013677 0.06500642 0.68238473 8.3064685e-39
0.46162549 0.066513568 0.6826793 8.3064685e-39
0.46336511 0.06804952 0.6825887 8.3064685e-39
0.464957 0.069627151 0.68142629 8.3064685e-39
0.46637726 0.070352286 0.68315679 8.3064685e-39
0.46996826 0.072782904 0.68155044 8.3064685e-39
0.47238839 0.074302152 0.68307453 8.3064685e-39
0.47490209 0.075952522 0.68186128 8.3064685e-39
0.47724837 0.077470422 0.68352532 8.3064685e-39
0.47978824 0.079137914 0.68230855 8.3064685e-39
0.4823361 0.08081536 0.68109703 8.3064685e-39
0.48461241 0.082336009 0.68291032 8.3064685e-39
0.48713219 0.084023401 0.68177563 8.4901451e-39
0.48927921 0.085532621 0.68380195 9.777696e-39
0.49182272 0.087236084 0.68266618 1.0881207e-38
0.49438256 0.088950507 0.68152308 1.0053574e-38
0.49654555 0.090470925 0.68356293 8.5823463e-39
0.49929041 0.09222506 0.68218696 8.3064699e-39
0.50178808 0.093800008 0.68376929 8.3064699e-39
0.50460941 0.095580742 0.68232328 8.3064685e-39
0.50716507 0.097172312 0.68385398 8.3983054e-39
0.5100202 0.098973945 0.68240041 8.3983054e-39
0.51255578 0.10057045 0.68399078 8.3983082e-39
0.51547712 0.10239832 0.68248498 8.8582242e-39
0.51839125 0.10423525 0.68100846 9.1341006e-39
0.52104259 0.10586447 0.68249172 8.3983082e-39
0.52429873 0.10759795 0.68315864 8.3983054e-39
0.52761018 0.10934624 0.68377376 8.3064685e-39
0.53136158 0.11135904 0.68125445 8.3064685e-39
0.53471518 0.11312965 0.68186975 8.3064685e-39
0.537655 0.11483239 0.68306106 8.3064685e-39
0.54435235 0.11859271 0.6818608 8.3061098e-39
0.45349097 0.050160669 0.68630296 5.8083247e-39
0.45126328 0.052045267 0.68547672 5.8083247e-39
0.45142716 0.055170298 0.6856519 7.8437163e-39
0.45453942 0.058913551 0.68464434 8.3061126e-39
0.45547867 0.060357004 0.68577838 8.3064685e-39
0.45719379 0.06187012 0.68569356 8.3064685e-39
0.45891464 0.063388243 0.68560851 8.3064685e-39
0.46064109 0.064911388 0.68552327 8.3064685e-39
0.46324229 0.067206234 0.68539464 8.3064685e-39
0.46672982 0.070282996 0.68522233 8.3064685e-39
0.46984559 0.072601885 0.68564934 8.3064685e-39
0.47221851 0.074168175 0.6859349 8.3064685e-39
0.47579563 0.076558888 0.6857146 8.3064685e-39
0.4794358 0.078970581 0.68543452 8.3064685e-39
0.482032 0.080649704 0.68415183 8.3064685e-39
0.48421901 0.082155384 0.68608391 8.3064685e-39
0.4867422 0.083838739 0.68494475 8.3983068e-39
0.48887235 0.085342027 0.68698096 9.3181415e-39
0.4914192 0.087041438 0.68584085 1.0513491e-38
0.49397808 0.088751219 0.68469977 9.3177814e-39
0.49619424 0.090275541 0.68664813 8.4901451e-39
0.49898738 0.092032254 0.68520486 8.3064699e-39
0.50145411 0.093599193 0.68681943 8.3064685e-39
0.50429899 0.095379092 0.68534219 8.3064685e-39
0.50677842 0.096955605 0.6869688 8.3983054e-39
0.50965631 0.098756261 0.68548536 8.3983054e-39
0.51506311 0.1021646 0.6856299 8.3983082e-39
0.51789719 0.10389896 0.6855464 8.3983082e-39
0.52081698 0.10565369 0.68536788 8.3983054e-39
0.52389771 0.10735437 0.68626702 8.3064685e-39
0.52719879 0.10909709 0.68688768 8.3064685e-39
0.53093737 0.11110282 0.68439174 8.3064685e-39
0.53384775 0.11279205 0.68559164 8.3064685e-39
0.53669268 0.1144733 0.68689412 8.3064685e-39
0.54048437 0.11651893 0.68441451 8.3064685e-39
0.54445326 0.11831884 0.68555963 1.0152151e-38
0.45451847 0.050131939 0.68859398 5.8083247e-39
0.4563638 0.048711672 0.68959856 5.8083247e-39
0.45190716 0.052479476 0.68793994 5.8083247e-39
0.45336097 0.051529739 0.689116 5.8083247e-39
0.45037228 0.054334573 0.68863559 5.8083247e-39
0.45256877 0.057306953 0.6877619 8.3061112e-39
0.45427167 0.058808427 0.68768072 8.3064685e-39
0.45598006 0.060314842 0.6875993 8.3064685e-39
0.45769411 0.061826222 0.68751764 8.3064685e-39
0.46027654 0.06410329 0.68739462 8.3064685e-39
0.46373877 0.067156166 0.68722969 8.3064685e-39
0.4663499 0.0694585 0.68710524 8.3064685e-39
0.46809828 0.071000203 0.68702197 8.3064685e-39
0.47177833 0.074004024 0.68919075 8.3064685e-39
0.47431368 0.075648427 0.68794703 8.3064685e-39
0.47895628 0.078788429 0.68873447 8.3064685e-39
0.48159927 0.080468655 0.68738294 8.3064685e-39
0.48382121 0.081974968 0.6892485 8.3064685e-39
0.48634183 0.08365351 0.68811375 8.3983054e-39
0.49100339 0.086845949 0.68901795 9.8695357e-39
0.49355763 0.08855056 0.68788421 8.7660243e-39
0.49592531 0.090092637 0.68960059 8.3983082e-39
0.49863034 0.091832466 0.68828577 8.3064685e-39
0.50250435 0.094281331 0.68917203 8.3064685e-39
0.50926208 0.098534793 0.68859822 8.3983054e-39
0.51215178 0.1003429 0.68711954 8.3983054e-39
0.51478398 0.10195345 0.68857318 8.3064685e-39
0.51757258 0.10359204 0.68982333 8.3064685e-39
0.52059251 0.10544397 0.68822962 8.3064685e-39
0.52349895 0.10711215 0.68935764 8.3064685e-39
0.53008032 0.11077306 0.68809575 8.3064685e-39
0.53324318 0.11250173 0.68894404 8.398304e-39
0.53648508 0.11424916 0.68970847 8.398304e-39
0.53995717 0.11623313 0.68765736 8.398304e-39
0.54062754 0.11616302 0.68931127 1.1997835e-38
0.54461485 0.11659081 0.68789035 1.1997835e-38
0.45554405 0.050103255 0.69088084 5.8083247e-39
0.45704699 0.048693493 0.69112414 5.8083247e-39
0.45404464 0.051509697 0.69063818 5.8083247e-39
0.45060349 0.055210754 0.69173527 7.7504501e-39
0.45204377 0.057185594 0.69119203 8.1210109e-39
0.45349061 0.058660861 0.69150805 8.2132037e-39
0.45494056 0.060139287 0.69182491 8.3057538e-39
0.4563936 0.061620876 0.69214237 8.3064699e-39
0.45784968 0.063105635 0.6924606 8.3064685e-39
0.45930898 0.064593583 0.69277942 8.3064685e-39
0.46650273 0.070720442 0.69204253 8.3064685e-39
0.46922773 0.07236702 0.69047499 8.3064685e-39
0.47130013 0.073836267 0.69248766 8.3064685e-39
0.47382563 0.075474784 0.69125903 8.3064685e-39
0.47636813 0.077124313 0.69002211 8.3064685e-39
0.47853577 0.078614272 0.69193041 8.3064685e-39
0.48116922 0.080288723 0.6905942 8.3064685e-39
0.48466396 0.082629852 0.6918596 8.3064685e-39
0.48846549 0.085152254 0.69014448 8.8582214e-39
0.49059004 0.086651623 0.6921761 8.4901479e-39
0.49324018 0.088365041 0.69090474 8.4901465e-39
0.49565774 0.089910716 0.69253725 8.3983068e-39
0.49835348 0.091645084 0.69123781 8.3983054e-39
0.50078553 0.09320002 0.69287753 8.3064685e-39
0.50354719 0.094958797 0.69152248 8.3064685e-39
0.50639397 0.096740142 0.69006574 8.3064699e-39
0.50887024 0.098314613 0.69169295 8.3064685e-39
0.51170295 0.10002816 0.69156539 8.3064685e-39
0.51457626 0.10175457 0.69140464 8.3064685e-39
0.51728058 0.1033763 0.69276118 8.3064685e-39
0.5203523 0.10523251 0.69110006 8.3064685e-39
0.5231908 0.10688608 0.69231123 8.3064685e-39
0.52661943 0.10882048 0.69021332 8.3064685e-39
0.52982515 0.11054818 0.69097537 8.398304e-39
0.53304482 0.11228338 0.69174057 8.4901395e-39
0.53627843 0.11402611 0.69250917 8.4901395e-39
0.53849769 0.11423136 0.69211 1.1997835e-38
0.54113328 0.11450901 0.69117689 1.1997835e-38
0.44999766 0.052732594 0.69441676 5.9934264e-39
0.45074749 0.054646075 0.69495577 7.4735157e-39
0.45157552 0.057069346 0.69451505 8.3061112e-39
0.44864354 0.061160311 0.69420081 8.3064685e-39
0.46077144 0.066084728 0.69309902 8.3064685e-39
0.462237 0.067579091 0.69341916 8.3064685e-39
0.46379852 0.069086388 0.69359815 8.3064685e-39
0.46605885 0.070565909 0.69528538 8.3064685e-39
0.46979922 0.072938114 0.6947493 8.3064685e-39
0.47334075 0.075302258 0.69454962 8.3064685e-39
0.47592074 0.076951504 0.69325721 8.3064685e-39
0.47811782 0.078441188 0.69510674 8.3064685e-39
0.4807418 0.080109894 0.69378579 8.3064685e-39
0.48294967 0.081606805 0.69564265 8.3064685e-39
0.48554814 0.083286352 0.69439512 8.3064685e-39
0.48806107 0.08496362 0.6932891 8.3983082e-39
0.49032211 0.086477853 0.69510937 8.3983082e-39
0.49298072 0.088188343 0.69382775 8.3983082e-39
0.49539173 0.089729756 0.69545817 8.3983054e-39
0.49807924 0.091458865 0.69417232 8.3983054e-39
0.50050461 0.093009487 0.69581014 8.3064685e-39
0.50322157 0.094757468 0.69451994 8.3064685e-39
0.50601178 0.096525915 0.69314492 8.3064685e-39
0.50861895 0.098117016 0.69457793 8.3064685e-39
0.51423341 0.10153496 0.69440913 8.3064685e-39
0.51684433 0.10313814 0.6958822 8.398304e-39
0.51990533 0.10498795 0.69423848 8.398304e-39
0.52292597 0.10666814 0.69519305 8.398304e-39
0.52627563 0.10849662 0.69446588 8.4901395e-39
0.52963591 0.11033551 0.6937542 8.4901395e-39
0.5328474 0.11206608 0.69452363 8.4901395e-39
0.45207089 0.049819659 0.69887871 6.6380854e-39
0.4513422 0.052105725 0.69796646 6.7309914e-39
0.45173559 0.055245012 0.69837719 8.674542e-39
0.45235711 0.058444064 0.69715035 8.3061098e-39
0.46069109 0.067321591 0.69835067 8.3064685e-39
0.46336478 0.0689376 0.69682384 8.3064685e-39
0.46561772 0.070412353 0.69850773 8.3064685e-39
0.46832204 0.072047301 0.69697475 8.3064685e-39
0.47292465 0.075138465 0.69772112 8.3064685e-39
0.47551221 0.076784089 0.69641852 8.3064685e-39
0.47770256 0.078269154 0.69826365 8.3064685e-39
0.48031694 0.079932153 0.69695777 8.3064685e-39
0.4825179 0.0814244 0.69881034 8.3064685e-39
0.48515487 0.083104409 0.69750786 8.3064685e-39
0.48768181 0.084779121 0.69638216 8.3983054e-39
0.49007189 0.08630722 0.69800353 8.3983054e-39
0.49272263 0.088012584 0.69673526 8.3983054e-39
0.49507201 0.089542024 0.6984418 8.3064685e-39
0.49778152 0.091270044 0.69712663 8.3064685e-39
0.50011343 0.092803672 0.69888395 8.3064685e-39
0.50285202 0.094550438 0.69756496 8.3064685e-39
0.50566369 0.096317753 0.69616193 8.3064685e-39
0.50821984 0.0978975 0.69765437 8.3064685e-39
0.5112105 0.099708341 0.69604385 8.3064685e-39
0.51380777 0.10130313 0.69751281 8.398304e-39
0.51641059 0.10290136 0.69898504 8.4901395e-39
0.51947272 0.10474674 0.69734263 8.4901395e-39
0.52266258 0.10645134 0.69805998 8.581975e-39
0.52586651 0.1081635 0.69878042 8.8578374e-39
0.52936602 0.1101099 0.69662809 8.6741678e-39
0.53252053 0.11182719 0.69746524 9.225178e-39
0.45388609 0.046958979 0.70116717 6.6380854e-39
0.4575991 0.045627169 0.70053911 1.1351756e-38
0.45297718 0.049102236 0.70002538 6.6380854e-39
0.45388177 0.049098052 0.7011739 6.6380854e-39
0.45297146 0.051954713 0.70003426 7.1930276e-39
0.45387605 0.05195009 0.70118272 7.4710354e-39
0.45296431 0.055520203 0.70004535 9.2291339e-39
0.45386887 0.055515025 0.70119381 9.3213267e-39
0.45295858 0.058372516 0.70005423 9.4138782e-39
0.45361996 0.059324652 0.70072931 9.0447412e-39
0.45402524 0.061738912 0.70010155 8.6752468e-39
0.45705369 0.064953677 0.70010489 8.3064685e-39
0.46027023 0.067179367 0.70153916 8.3064685e-39
0.4629339 0.068789758 0.70002913 8.3064685e-39
0.46652132 0.0710738 0.70095944 8.3064685e-39
0.47035491 0.073504202 0.6990149 8.3064685e-39
0.47252786 0.074977607 0.70084852 8.3064685e-39
0.47510624 0.076617673 0.69956052 8.3064685e-39
0.47860134 0.078927934 0.7007426 8.3064685e-39
0.48215163 0.081251092 0.70186746 8.3064685e-39
0.48476613 0.08292383 0.70059896 8.3064685e-39
0.48741001 0.08460965 0.69930542 8.3983054e-39
0.48970968 0.086122178 0.7010445 8.3064685e-39
0.49353752 0.088586479 0.70062101 8.3064685e-39
0.49739397 0.091069177 0.7001937 8.3064685e-39
0.4997189 0.092598222 0.70194775 8.3064685e-39
0.502505 0.094347626 0.70056415 8.3064685e-39
0.50535178 0.096115917 0.69911468 8.3064685e-39
0.50790066 0.097691171 0.70060599 8.398304e-39
0.51079541 0.09948273 0.69913042 8.398304e-39
0.51338464 0.10107263 0.70059848 8.4901395e-39
0.51921928 0.10453584 0.70019054 8.5819736e-39
0.52240044 0.10623563 0.70091236 9.041507e-39
0.52559012 0.107942 0.70164466 9.592164e-39
0.52908039 0.10988252 0.69950998 9.4084917e-39
0.53201407 0.11155815 0.70062971 8.7609839e-39
0.535465 0.11332839 0.70109087 8.0234356e-39
0.53902245 0.11512365 0.7014401 8.4854802e-39
0.45479041 0.046955131 0.70231533 6.6380854e-39
0.45478609 0.049093872 0.70232189 6.6380854e-39
0.45478034 0.05194547 0.70233077 7.9334288e-39
0.4547731 0.055509854 0.70234185 9.3216854e-39
0.45476595 0.059074137 0.70235294 9.4138782e-39
0.45476022 0.061925475 0.70236176 9.4138782e-39
0.4553988 0.064032525 0.70391685 8.3064685e-39
0.45770729 0.065589026 0.70291418 8.3064685e-39
0.4602558 0.067078933 0.70409453 8.3064685e-39
0.4625892 0.068651542 0.70308799 8.3064685e-39
0.46631786 0.070944771 0.70379394 8.3064685e-39
0.46986264 0.073281534 0.70354378 8.3064685e-39
0.47218919 0.074824169 0.70387441 8.3064685e-39
0.47585964 0.077198505 0.70350134 8.3064685e-39
0.47955668 0.079590045 0.70312488 8.3064685e-39
0.48180807 0.081081398 0.70487708 8.3064685e-39
0.48442084 0.082749635 0.70361257 8.3064685e-39
0.4870562 0.084430061 0.70233274 8.3064685e-39
0.48934913 0.085938148 0.70406866 8.3064685e-39
0.4931649 0.088394679 0.70365745 8.3064685e-39
0.49700874 0.090869471 0.70324296 8.3064685e-39
0.49938691 0.092402712 0.70490998 8.398304e-39
0.50220364 0.094152406 0.70348603 8.398304e-39
0.50488722 0.095815361 0.70351177 8.398304e-39
0.5075832 0.097485952 0.7035417 8.4901395e-39
0.51045477 0.099269666 0.70210052 8.4901395e-39
0.5130142 0.10085143 0.70359796 8.6741678e-39
0.51597941 0.10266596 0.70206976 8.5819736e-39
0.51896667 0.10432594 0.70302469 9.225178e-39
0.52213293 0.10601991 0.70375907 9.4996125e-39
0.5253095 0.1077207 0.70450157 8.2067479e-39
0.52864665 0.10963077 0.70257437 8.4840438e-39
0.53151047 0.1112907 0.70377529 6.9145938e-39
0.53490198 0.11304657 0.70430541 7.376309e-39
0.53844684 0.11483548 0.70466256 8.0245301e-39
0.45418602 0.04683847 0.70704138 6.6380854e-39
0.45733261 0.046906695 0.70727575 7.5600416e-39
0.45974386 0.046960369 0.70739108 7.0068679e-39
0.45332074 0.048943985 0.70710707 6.1778107e-39
0.45311975 0.052475166 0.70741564 7.0107635e-39
0.45291892 0.056003325 0.70772386 7.8433576e-39
0.45347765 0.058884338 0.7068662 8.3061098e-39
0.45436645 0.062009234 0.7063427 8.3064685e-39
0.4556312 0.063962162 0.70608944 8.3064685e-39
0.45805073 0.065479361 0.70618176 8.3064685e-39
0.46048099 0.067003138 0.70627636 8.3064685e-39
0.46291894 0.068533376 0.70637357 8.3064685e-39
0.44088569 0.0718292 0.70785284 7.467846e-39
0.46693087 0.071091019 0.70665246 8.3064685e-39
0.4699167 0.073121563 0.70723522 8.3064685e-39
0.47203887 0.074693106 0.70660836 8.3064685e-39
0.47553641 0.077041537 0.70648491 8.3064685e-39
0.4792217 0.079425663 0.70612061 8.3064685e-39
0.48146892 0.080912977 0.70786595 8.3064685e-39
0.48407745 0.082576439 0.70660889 8.3064685e-39
0.48784721 0.085003287 0.7062096 8.3064685e-39
0.49164492 0.087448075 0.70580661 8.3064685e-39
0.49394345 0.08895985 0.70754671 8.398304e-39
0.49662572 0.090670913 0.70627469 8.398304e-39
0.49910057 0.092214651 0.7077949 8.4901395e-39
0.50190389 0.093958244 0.70639217 8.4901395e-39
0.50448704 0.095526107 0.70779359 8.8578374e-39
0.50860679 0.098077402 0.70711315 9.1333425e-39
0.51144516 0.099854752 0.70573056 9.1333439e-39
0.51551682 0.10234434 0.70642036 9.0382784e-39
0.51870841 0.10411599 0.70585358 9.0379253e-39
0.52186614 0.10580517 0.70659226 7.7450579e-39
0.52483028 0.107467 0.70760757 8.1127964e-39
0.52815545 0.10937027 0.70570004 7.5596129e-39
0.51655722 0.11197099 0.70637566 8.3064685e-39
0.53100997 0.11102486 0.70690209 9.1273351e-39
0.53434241 0.11276647 0.70750022 8.1135475e-39
0.53787482 0.11454909 0.70786524 7.932354e-39
0.54201156 0.11663441 0.7050218 8.4890689e-39
0.54559636 0.11844347 0.705383 8.4897808e-39
0.45242655 0.048123859 0.71099073 7.5600416e-39
0.45262709 0.055906288 0.71068394 7.9362679e-39
0.45345119 0.058800958 0.70942354 8.3061098e-39
0.45426413 0.061660849 0.70943594 8.3064685e-39
0.45586276 0.063892037 0.70825475 8.3064685e-39
0.45724303 0.064596161 0.70992386 8.3064685e-39
0.46080521 0.066888742 0.70955247 8.3064685e-39
0.46320552 0.068411417 0.7097069 8.3064685e-39
0.46639356 0.070449285 0.70995516 8.3064685e-39
0.47007483 0.07302922 0.7095021 8.3064685e-39
0.4721936 0.074597687 0.70888209 8.3064685e-39
0.47513556 0.076635614 0.70956725 8.3064685e-39
0.47888863 0.079262227 0.70909929 8.3064685e-39
0.48110962 0.080742732 0.71086949 8.398304e-39
0.48373604 0.082404226 0.70958841 8.398304e-39
0.48747298 0.084820703 0.70923072 8.398304e-39
0.49127924 0.087260604 0.70881081 8.398304e-39
0.49346131 0.088752635 0.71070117 8.5819736e-39
0.49631941 0.090484098 0.70918512 8.5819736e-39
0.49887925 0.092036776 0.71057659 9.041507e-39
0.50170684 0.093780033 0.70914334 8.9496729e-39
0.50431949 0.095349222 0.710495 9.776191e-39
0.50842863 0.097893596 0.70982766 8.9457254e-39
0.51257116 0.1004587 0.70915377 8.4836781e-39
0.51522267 0.10205144 0.71051878 6.6376453e-39
0.51845163 0.10390712 0.70866799 7.2837294e-39
0.5215348 0.10558067 0.70949817 8.4815902e-39
0.52435386 0.10721479 0.71069527 1.0602123e-38
0.52766699 0.10911129 0.70880723 9.9571056e-39
0.53051233 0.11076057 0.71001047 9.8649226e-39
0.5337863 0.11248811 0.71067548 8.2979514e-39
0.5414269 0.11634167 0.70823228 8.397239e-39
0.5441457 0.1179895 0.70968223 8.3061098e-39
0.45098811 0.050149474 0.71319067 5.8083247e-39
0.45480946 0.048179742 0.71111315 7.5600416e-39
0.45800188 0.048254609 0.71127713 7.5600416e-39
0.46040756 0.048311021 0.71140081 7.467846e-39
0.45180607 0.053022482 0.71193969 6.2707195e-39
0.45260277 0.055829961 0.71322209 7.843359e-39
0.45342493 0.058717959 0.71196926 8.3061112e-39
0.45416269 0.061315257 0.71251124 8.3064685e-39
0.45791492 0.064757146 0.71265632 8.3064685e-39
0.46108663 0.06677071 0.71287578 8.3064685e-39
0.46338367 0.068329245 0.71193671 8.3064685e-39
0.46586823 0.069812149 0.71322238 8.3064685e-39
0.46812761 0.071379572 0.71237117 8.3064685e-39
0.47023243 0.07293722 0.71176088 8.3064685e-39
0.47242451 0.074455261 0.71227622 8.3064685e-39
0.47566885 0.076764479 0.71251982 8.3064685e-39
0.47882724 0.079132944 0.71167231 8.398304e-39
0.48081023 0.080580749 0.71377301 8.398304e-39
0.48458353 0.083049871 0.71209937 8.4901395e-39
0.48806757 0.085363895 0.71333683 8.5819736e-39
0.49075478 0.087052204 0.71202374 8.5819736e-39
0.49312937 0.08856719 0.71363109 9.225178e-39
0.49600202 0.090296485 0.71209747 9.1333425e-39
0.49856341 0.091845989 0.71347612 9.4070581e-39
0.501445 0.093593016 0.71197122 9.6840009e-39
0.50401658 0.09515281 0.71336907 8.0223552e-39
0.50693399 0.096921548 0.71185619 8.2992981e-39
0.50952488 0.098493055 0.71326101 7.3755803e-39
0.51238304 0.1002688 0.71186835 6.9138763e-39
0.51502794 0.10185745 0.71323335 9.6801502e-39
0.51819611 0.1036993 0.7114681 9.0347724e-39
0.52107018 0.10533512 0.71256655 1.0879073e-38
0.52391285 0.10696951 0.71372217 1.0879079e-38
0.52718151 0.10885385 0.711896 1.0049315e-38
0.5300765 0.11050795 0.71302426 9.4961457e-39
0.53656507 0.11413353 0.71199745 8.3933434e-39
0.53919262 0.11575504 0.71352488 8.3046973e-39
0.54493201 0.11794233 0.71113485 2.5807434e-39
0.45094535 0.050084919 0.71574742 5.8083247e-39
0.45183256 0.053167585 0.71522427 6.1781694e-39
0.452566 0.055753015 0.71576774 7.7511675e-39
0.45345274 0.058847439 0.71524978 8.3061098e-39
0.45419052 0.061438262 0.71578968 8.3064685e-39
0.45772651 0.064410023 0.71542662 8.3064685e-39
0.46126759 0.066691816 0.7150895 8.3064685e-39
0.46357965 0.068199374 0.71536911 8.3064685e-39
0.46604156 0.069727547 0.71544468 8.3064685e-39
0.468288 0.071290925 0.71461511 8.3064685e-39
0.47036514 0.072788455 0.71528208 8.3064685e-39
0.47241586 0.07428626 0.7160002 8.398304e-39
0.475546 0.076633371 0.71516973 8.398304e-39
0.4786312 0.07892736 0.71565831 8.398304e-39
0.48067456 0.080439992 0.71642959 8.4901395e-39
0.48279327 0.082028627 0.71587378 8.581975e-39
0.48539943 0.083687559 0.71464056 8.6741678e-39
0.48754662 0.085161552 0.71652812 9.4088504e-39
0.49027908 0.086851329 0.71515274 9.3170135e-39
0.49282056 0.088385738 0.71651506 8.9453709e-39
0.49568409 0.090109594 0.71499693 9.1304768e-39
0.49824488 0.091655605 0.71636581 7.4681151e-39
0.50240386 0.094175413 0.7155689 7.9291072e-39
0.50659406 0.096716188 0.71477014 7.8362067e-39
0.50917751 0.098283149 0.71617436 1.0233694e-38
0.51212168 0.10006818 0.71466899 9.8645442e-39
0.51470399 0.10164367 0.71610761 1.1155661e-38
0.51782268 0.10347323 0.71441185 1.1063106e-38
0.52070737 0.1051073 0.71548694 1.1247861e-38
0.52360171 0.10674685 0.71656561 1.0879084e-38
0.52682513 0.10861928 0.71480256 9.4965086e-39
0.52970189 0.11026685 0.71594512 9.0355319e-39
0.53292686 0.11215804 0.71422559 8.574188e-39
0.53577924 0.11381198 0.7154392 7.5625191e-39
0.53866488 0.11547534 0.71662521 8.3050448e-39
0.45089644 0.050020248 0.71830213 5.8083247e-39
0.45773098 0.048067816 0.7191273 6.0849116e-39
0.43343326 0.052679889 0.71945739 6.3632711e-39
0.4516263 0.0525949 0.7188434 5.9930677e-39
0.45251331 0.055675179 0.71832621 7.658616e-39
0.45326486 0.058256667 0.71883774 8.3057524e-39
0.45461044 0.061595384 0.71845788 8.3064685e-39
0.47299361 0.06293723 0.71923071 8.3064685e-39
0.45755836 0.064301707 0.71815306 8.3064685e-39
0.46111697 0.066580117 0.71778679 8.3064685e-39
0.46331662 0.068023115 0.71945953 8.398304e-39
0.4658069 0.069600224 0.71825713 8.398304e-39
0.46814159 0.07111679 0.71852762 8.398304e-39
0.47020924 0.072608434 0.71920347 8.398304e-39
0.47228616 0.074160084 0.7186482 8.398304e-39
0.4754205 0.076502517 0.71781158 8.398304e-39
0.47842509 0.078721702 0.71963501 9.4092063e-39
0.4805373 0.080299631 0.71907669 9.5010418e-39
0.48265284 0.081884384 0.71852547 9.5928773e-39
0.48488879 0.083491266 0.71781641 9.5006859e-39
0.48715979 0.084977947 0.71951604 8.3918468e-39
0.48997921 0.086675242 0.71802145 8.7606251e-39
0.49251348 0.088205278 0.7193833 6.914591e-39
0.495368 0.089923725 0.71788049 7.2833679e-39
0.49792141 0.091465287 0.71924913 8.8500182e-39
0.50080025 0.093203567 0.71775353 8.4815888e-39
0.50335717 0.094754428 0.71915036 1.0971269e-38
0.50625604 0.096511945 0.71766818 1.0694318e-38
0.508798 0.098069154 0.71911734 1.124786e-38
0.51173955 0.099849425 0.71761829 1.1155661e-38
0.51431084 0.10141971 0.7190606 1.152445e-38
0.51751661 0.10325897 0.71725327 1.1432252e-38
0.52040589 0.10489045 0.71831363 1.1616649e-38
0.52329212 0.10652535 0.71939427 1.0141879e-38
0.49925023 0.11018473 0.71877933 8.3061084e-39
0.5265041 0.10839163 0.71765018 8.7593065e-39
0.5293228 0.11002595 0.71885842 8.6663892e-39
0.53253734 0.11191094 0.71715599 8.5741894e-39
0.53541905 0.11356661 0.71832269 7.285226e-39
0.53847265 0.11525653 0.71928757 8.2132093e-39
0.5420137 0.11713232 0.71845186 8.3064685e-39
0.5582096 0.12308114 0.71735072 1.0336539e-38
0.45108166 0.049717586 0.72131175 5.9927159e-39
0.45857364 0.048032705 0.72156203 6.0849116e-39
0.45162857 0.052739315 0.72212702 5.9934264e-39
0.45256805 0.0558144 0.72153091 7.7511661e-39
0.45361799 0.058414433 0.72159261 8.3061098e-39
0.45486271 0.061035812 0.72136468 8.3064685e-39
0.45694208 0.063917398 0.72153473 8.3064685e-39
0.50194842 0.064356029 0.72178912 7.0107663e-39
0.46084321 0.066456631 0.72065377 8.398304e-39
0.46303642 0.067895524 0.72232401 8.4901395e-39
0.46661776 0.07019069 0.72197807 8.7656432e-39
0.47007823 0.072486103 0.72184134 9.041507e-39
0.47214985 0.074033692 0.72129381 9.1333425e-39
0.47557712 0.076585911 0.72125769 9.1319062e-39
0.47827321 0.078583598 0.72229105 8.7606153e-39
0.48037982 0.080157325 0.72174054 8.5762283e-39
0.48249674 0.081738748 0.72118735 8.3914797e-39
0.4846696 0.083269745 0.72178364 7.2833553e-39
0.4871242 0.084841855 0.72200036 6.6372894e-39
0.48975039 0.086509533 0.72077817 6.4528954e-39
0.49241412 0.088054292 0.72195208 9.4035619e-39
0.49507165 0.089741401 0.72072363 9.2191664e-39
0.49775618 0.091298476 0.72190326 1.1432254e-38
0.50048053 0.093010426 0.72062123 1.1063106e-38
0.50298327 0.094549894 0.72208059 1.1340057e-38
0.5058794 0.096302703 0.72060466 1.124786e-38
0.50839216 0.097851977 0.72208178 1.1616648e-38
0.51132363 0.099626295 0.7205987 1.1524451e-38
0.51399577 0.10120908 0.72189683 1.1524455e-38
0.51703006 0.10293487 0.72152579 1.097128e-38
0.52008247 0.10467087 0.72115618 1.0602499e-38
0.52298456 0.10630506 0.72220767 9.0351731e-39
0.52613539 0.10815684 0.72054648 8.758945e-39
0.5290091 0.10979716 0.72167498 8.3894408e-39
0.53206015 0.11156077 0.72138888 8.2054069e-39
0.53518206 0.11334383 0.72103727 7.1001229e-39
0.53830504 0.11504295 0.72190773 8.2132093e-39
0.54198807 0.1168475 0.72209865 8.3064685e-39
0.45160106 0.049881734 0.72461975 5.9005203e-39
0.45913416 0.048009358 0.72318125 6.0849116e-39
0.45157835 0.052668884 0.72465432 5.9934264e-39
0.45239255 0.054785036 0.72465539 7.288414e-39
0.45311266 0.056199212 0.72480071 8.028818e-39
0.43098634 0.059099447 0.72440678 7.5642918e-39
0.45411211 0.058336847 0.72452891 8.3061098e-39
0.4712044 0.057715215 0.72361612 7.1955107e-39
0.45539382 0.061203621 0.72384107 8.3064685e-39
0.45600075 0.061871823 0.72538131 8.3064685e-39
0.45734185 0.064052954 0.72461337 8.3064685e-39
0.46057099 0.066333823 0.7235049 8.398304e-39
0.4627561 0.067768477 0.7251749 8.8578374e-39
0.46632645 0.070056796 0.72484052 9.1319076e-39
0.46992248 0.072361536 0.72450316 9.3148625e-39
0.47201419 0.073907912 0.72392654 9.3144996e-39
0.4750607 0.076171555 0.72442913 7.8375954e-39
0.478122 0.07844615 0.72493422 6.3606941e-39
0.4802705 0.080021635 0.72432464 6.0837485e-39
0.48253122 0.081555709 0.7247805 7.9284094e-39
0.48479974 0.083094917 0.72523999 9.8649058e-39
0.48715407 0.084715016 0.72438335 9.8645456e-39
0.48978716 0.086313806 0.72436398 1.060212e-38
0.49243325 0.087920316 0.72434694 1.152445e-38
0.49507216 0.089532018 0.7243548 1.1432255e-38
0.49763566 0.09113875 0.72448516 1.1524451e-38
0.5002296 0.092828117 0.72338259 1.152445e-38
0.50259703 0.094344355 0.72501391 1.1708845e-38
0.50548339 0.096091382 0.72355354 1.1708844e-38
