# .PCD v0.7 - Point Cloud Data file format
VERSION 0.7
FIELDS x y z rgb
SIZE 4 4 4 4
TYPE F F F F
COUNT 1 1 1 1
WIDTH 989
HEIGHT 1
VIEWPOINT 0 0 0 1 0 0 0
POINTS 989
DATA ascii
0.69579345 -0.04978966 0.68157649 8.7243721e-39
0.69384086 -0.046993736 0.68231392 8.7243721e-39
0.69128668 -0.043325346 0.6824103 8.7243721e-39
0.68934548 -0.04055278 0.68314856 8.8169279e-39
0.68681675 -0.036912259 0.68323618 8.8176482e-39
0.68815273 -0.038791481 0.68185067 8.7243721e-39
0.68496448 -0.034220424 0.68262982 8.817288e-39
0.68311512 -0.031532034 0.68202525 8.7243721e-39
0.68061262 -0.027923774 0.68211049 8.7243721e-39
0.68179673 -0.029674713 0.68340266 8.5428676e-39
0.67870843 -0.02520323 0.68284273 8.1744494e-39
0.67672986 -0.022487879 0.68365818 7.3501033e-39
0.67433619 -0.018960785 0.68238735 7.8996659e-39
0.67563164 -0.020749144 0.68228555 8.4495901e-39
0.67182291 -0.015399311 0.6825192 7.7163579e-39
0.67311251 -0.017180257 0.68241835 8.2662821e-39
0.67060351 -0.013625734 0.68255061 8.0829754e-39
0.66810459 -0.010085482 0.68268239 7.808192e-39
0.66939998 -0.01188691 0.68129927 8.7243721e-39
0.66561568 -0.0065594241 0.68281364 7.5334114e-39
0.66690463 -0.0083503053 0.68143243 8.7243721e-39
0.66377801 -0.0039376691 0.68225467 7.8996674e-39
0.66199291 -0.0013212766 0.68164414 8.4495915e-39
0.65965259 0.0021694936 0.68163979 8.9098438e-39
0.66075617 0.0004475005 0.68297905 7.901831e-39
0.65790194 0.0047872616 0.682271 9.0031198e-39
0.65615797 0.0073954901 0.68289959 9.096756e-39
0.65387094 0.010851312 0.68286014 9.0974763e-39
0.65505695 0.0091122529 0.68156594 8.9109242e-39
0.65218139 0.013430286 0.68217504 9.0042002e-39
0.64988941 0.016866907 0.68215632 9.0974763e-39
0.64801931 0.019436698 0.68168128 9.0042002e-39
0.64612317 0.021999914 0.68250805 9.1907523e-39
0.64359868 0.025403142 0.68277109 9.2840283e-39
0.64129907 0.02851258 0.68237209 9.1914726e-39
0.63936925 0.031330317 0.68241364 9.2843885e-39
0.63851464 0.03386984 0.68210316 9.5634963e-39
0.63910425 0.036400132 0.68397546 1.0498417e-38
0.64262509 0.039855719 0.68258584 1.0216428e-38
0.64568955 0.043321222 0.68172061 1.0101905e-38
0.64684474 0.04561016 0.68213278 1.0017992e-38
0.64951849 0.049356204 0.68256426 9.9254363e-39
0.65027034 0.05195608 0.6817376 1.0101905e-38
0.65218359 0.05311504 0.68301678 9.746447e-39
0.65474397 0.055491667 0.68190747 8.8248508e-39
0.65837514 0.058174156 0.68175864 8.8241306e-39
0.66195041 0.060866177 0.68168998 8.8241306e-39
0.66434592 0.062669843 0.6816439 8.8237704e-39
0.66675216 0.064480424 0.68159586 8.8237704e-39
0.67049992 0.06713669 0.68392658 9.4756223e-39
0.71029496 -0.06732814 0.68587363 8.6635053e-39
0.70821685 -0.064616784 0.68416506 6.0733859e-39
0.70428085 -0.060718708 0.68559712 8.7308545e-39
0.70574087 -0.06252788 0.68665034 8.2756385e-39
0.70282185 -0.058910817 0.68454474 7.0749345e-39
0.70062625 -0.056062602 0.6855045 7.4447975e-39
0.69771564 -0.052329086 0.68593585 9.0989168e-39
0.6956166 -0.049580507 0.68555045 9.1907523e-39
0.69299203 -0.045843259 0.68697208 9.5642165e-39
0.69371772 -0.046858907 0.68496931 9.0963959e-39
0.69115567 -0.043196689 0.68507367 9.0971161e-39
0.68921471 -0.040429458 0.68580908 9.2829479e-39
0.68667424 -0.036794852 0.68590897 9.2840283e-39
0.68800718 -0.038670085 0.68453151 9.0963959e-39
0.68478709 -0.034105301 0.68534124 9.2833081e-39
0.68298066 -0.031425592 0.68469477 9.0981965e-39
0.68040091 -0.027818527 0.68486083 6.2502564e-39
0.68150455 -0.029559746 0.68623126 7.2654775e-39
0.67783183 -0.02422642 0.68502617 5.9754744e-39
0.6789335 -0.025964502 0.68639374 4.6012027e-39
0.6764437 -0.022388872 0.68648154 4.326062e-39
0.67400658 -0.018829908 0.68652391 4.234588e-39
0.67536229 -0.020654924 0.68509722 5.7006909e-39
0.67150843 -0.015280422 0.6866402 4.05128e-39
0.67287713 -0.01709573 0.68519467 5.4255502e-39
0.67037404 -0.013549026 0.68532109 5.1507682e-39
0.66788095 -0.010016538 0.68544698 4.8759862e-39
0.66912633 -0.01178105 0.6853826 5.1507668e-39
0.66539776 -0.0064981785 0.6855725 4.5093686e-39
0.66663826 -0.0082556326 0.68550837 4.8756246e-39
0.66421878 -0.0047467211 0.68557084 4.6926767e-39
0.66191769 -0.0012550959 0.68551588 4.6930382e-39
0.66304135 -0.0029983725 0.68557221 4.326062e-39
0.65966094 0.0022233082 0.68542188 9.9369605e-39
0.66079593 0.00048533082 0.68546188 6.441493e-39
0.65776044 0.0051134317 0.68537211 1.0029876e-38
0.65623361 0.0074203983 0.68534356 1.0123152e-38
0.65395027 0.010870295 0.68529993 1.0216789e-38
0.65509099 0.0091468394 0.68532068 1.0123513e-38
0.65278411 0.01359039 0.68506616 9.8436831e-39
0.65001374 0.01659438 0.68538952 1.0310425e-38
0.64795637 0.019444007 0.68554151 1.0403699e-38
0.6460951 0.021999914 0.6850667 1.0217507e-38
0.64357543 0.025396749 0.68532366 1.0403699e-38
0.6411137 0.029059604 0.68594694 1.0962275e-38
0.63943493 0.032150853 0.6861307 1.1242463e-38
0.63832021 0.033843488 0.68484974 1.0682809e-38
0.63958132 0.038076825 0.68596804 1.1150269e-38
0.64310026 0.041534994 0.68458748 1.0776445e-38
0.64357436 0.043210618 0.68658471 1.1336101e-38
0.64711767 0.046697572 0.6852029 1.0501659e-38
0.64782459 0.048381917 0.68694651 1.1246426e-38
0.65200078 0.052754894 0.68616164 9.1212451e-39
0.65469408 0.055427887 0.68449122 8.9278505e-39
0.65835994 0.058074594 0.68556565 8.9339728e-39
0.66198182 0.060762268 0.6854471 8.9339728e-39
0.66440886 0.062563285 0.68536764 8.9339728e-39
0.66684794 0.064371452 0.68528509 9.0258083e-39
0.67055762 0.067059308 0.68638784 1.0415225e-38
0.67425448 0.069797598 0.68626302 1.1428297e-38
0.70982599 -0.067112178 0.68885911 1.0325545e-38
0.70752561 -0.064303108 0.68863761 9.7640922e-39
0.70426512 -0.060571559 0.68813169 9.9402017e-39
0.70586616 -0.062395006 0.6890403 1.1513288e-38
0.7028628 -0.058702368 0.68828261 9.1172836e-39
0.73011446 -0.058917269 0.68888891 1.5396669e-38
0.7004056 -0.055582564 0.68866402 1.0588811e-38
0.69771159 -0.052197546 0.68845677 1.0310063e-38
0.69554174 -0.049383052 0.68940115 1.0776804e-38
0.69287997 -0.045712091 0.68959886 1.0962634e-38
0.69421631 -0.047607794 0.68823791 1.0217507e-38
0.70957214 -0.045529004 0.68768942 1.1241384e-38
0.69077367 -0.042732626 0.68840224 1.0310784e-38
0.68904209 -0.040302694 0.68850273 1.0495895e-38
0.68638128 -0.036664721 0.68872648 1.058989e-38
0.68785763 -0.038548756 0.68720645 9.8429642e-39
0.68373209 -0.033042546 0.68894929 1.0683529e-38
0.6851995 -0.034914542 0.68743294 9.9373207e-39
0.68260789 -0.031300507 0.68760139 9.9394829e-39
0.68003494 -0.027702127 0.68776101 3.7761378e-39
0.68113601 -0.029439293 0.68912786 6.7249266e-39
0.70606619 -0.028910682 0.6874404 4.0512814e-39
0.67752481 -0.024122272 0.68786538 3.6846653e-39
0.6786055 -0.025855109 0.68924886 3.3180478e-39
0.67616498 -0.022290718 0.68928593 3.3184079e-39
0.67373365 -0.01873979 0.68932301 3.2265738e-39
0.67508596 -0.020560589 0.68790513 3.5931885e-39
0.67127758 -0.015200336 0.68939561 3.1347397e-39
0.67264283 -0.017011572 0.68795896 3.5931913e-39
0.71145737 -0.016014764 0.68806827 1.8807913e-38
0.67014551 -0.01347265 0.68807966 3.5013572e-39
0.66822314 -0.010810129 0.68885648 3.2265724e-39
0.66529894 -0.0064423643 0.68819386 3.3180492e-39
0.66642743 -0.0081639905 0.68950438 3.0432671e-39
0.66417682 -0.0046724826 0.6893875 2.9514316e-39
0.6619336 -0.0011925064 0.68927115 3.1361816e-39
0.66305006 -0.0029534567 0.68807912 3.3184093e-39
0.65969789 0.0022759903 0.68915504 1.1616651e-38
0.66080856 0.00052392669 0.68796492 6.2668365e-39
0.65802193 0.0048614563 0.68844521 1.1521933e-38
0.68972462 0.0052974578 0.68938422 1.7148386e-38
0.65630901 0.0074452227 0.68777925 1.1428657e-38
0.65461814 0.010034414 0.68835008 1.1614849e-38
0.65215003 0.01347058 0.6885134 1.1523009e-38
0.64968443 0.016892817 0.68868434 1.1615565e-38
0.71780211 0.015717037 0.68828732 4.8890477e-39
0.64781821 0.019451581 0.68946493 1.1616284e-38
0.71388328 0.01868809 0.68829453 3.9667004e-39
0.6458208 0.022282539 0.68830395 1.152265e-38
0.64342839 0.025670806 0.68842125 1.1523009e-38
0.64126271 0.029607724 0.68913484 1.1708481e-38
0.64206553 0.027924698 0.68824917 1.1616284e-38
0.64000052 0.031853843 0.68885595 1.1616645e-38
0.63839459 0.034656428 0.68854237 1.1708482e-38
0.6374411 0.036335234 0.68834627 1.1708481e-38
0.64054704 0.040592439 0.68867022 1.1430456e-38
0.6444186 0.044896103 0.6881696 1.1615565e-38
0.64589614 0.046604652 0.68905854 1.1615565e-38
0.64737511 0.048314936 0.68994838 1.1616288e-38
0.64930916 0.050098348 0.68783796 1.032555e-38
0.65079516 0.051816534 0.6887303 9.5883455e-39
0.65228277 0.053536482 0.68962359 9.0351717e-39
0.65469635 0.055336691 0.68826443 8.9418957e-39
0.6584729 0.057982735 0.68921638 8.942616e-39
0.66213822 0.060666338 0.68905264 8.9429761e-39
0.66455483 0.062462404 0.68898541 9.0348116e-39
0.66698068 0.064265385 0.68891793 9.0348116e-39
0.67063832 0.066983789 0.68881607 1.0602137e-38
0.6743148 0.069716215 0.68871379 1.1708123e-38
0.67677891 0.0715473 0.68864465 1.1615566e-38
0.71033955 -0.066131726 0.69085741 9.6798125e-39
0.71233171 -0.068012655 0.69139129 1.1433337e-38
0.70935667 -0.064229228 0.69183147 1.1799956e-38
0.70489168 -0.060501747 0.69001484 1.2348092e-38
0.70688033 -0.061730564 0.69137168 1.2721554e-38
0.7044211 -0.058601812 0.69173723 1.2814471e-38
0.68501705 -0.055694852 0.69108069 1.1244263e-38
0.70146644 -0.055815604 0.69094092 1.2536799e-38
0.70295095 -0.056731172 0.69195586 1.2907385e-38
0.69710004 -0.051119503 0.69158077 1.2075821e-38
0.69902116 -0.053026214 0.69089592 1.2628271e-38
0.69555885 -0.049259037 0.69188833 1.1615565e-38
0.69294167 -0.045598701 0.69203973 1.1616281e-38
0.69412249 -0.047475308 0.6908415 1.1522289e-38
0.69147718 -0.04381685 0.69102758 1.152301e-38
0.68884313 -0.040173966 0.69121295 1.1615925e-38
0.69030344 -0.041950576 0.69222307 1.1616284e-38
0.68622017 -0.036546551 0.69139767 1.1524085e-38
0.68761975 -0.0383664 0.69121289 1.1429014e-38
0.68498588 -0.03474484 0.69141376 1.1430093e-38
0.68278176 -0.031737644 0.69159943 1.1431178e-38
0.67984176 -0.027554849 0.69172013 2.951433e-39
0.68101883 -0.029338636 0.69175315 6.3622748e-39
0.67724371 -0.024020296 0.69066632 2.9517918e-39
0.67848808 -0.025761273 0.69187415 2.8599577e-39
0.67668438 -0.02307377 0.69249809 2.8599577e-39
0.6741364 -0.019558365 0.6914053 2.8599577e-39
0.67104572 -0.015120488 0.69214129 2.8599577e-39
0.672387 -0.016926441 0.69073504 2.8599577e-39
0.669918 -0.01339661 0.6908263 2.8599577e-39
0.66811991 -0.010745939 0.69146979 2.8599577e-39
0.66530353 -0.0063912682 0.69069564 2.8599577e-39
0.66643 -0.0081098024 0.69200367 2.8599577e-39
0.66421354 -0.0046258811 0.69185108 2.8599577e-39
0.66201937 -0.0011536703 0.69168276 3.0443475e-39
0.66317254 -0.0028906073 0.69170547 2.9517932e-39
0.659832 0.0023075957 0.69151503 1.1616651e-38
0.66095901 0.00057718158 0.69156152 5.9016624e-39
0.65838557 0.0046085236 0.69139463 1.1708845e-38
0.65655136 0.0074793557 0.69127709 1.1708483e-38
0.6546002 0.010344038 0.69129211 1.1616647e-38
0.65217727 0.013771698 0.69140607 1.1708481e-38
0.64976382 0.017185854 0.69151968 1.1616282e-38
0.64815992 0.019454863 0.69159561 1.1616285e-38
0.64663005 0.021717191 0.6915946 1.1616285e-38
0.64414108 0.025383811 0.69098055 1.1708482e-38
0.64511001 0.024537463 0.69242007 1.1616647e-38
0.6418047 0.029600322 0.69104272 1.1708844e-38
0.64267278 0.028474817 0.69175553 1.1524092e-38
0.64046258 0.032399084 0.69168538 1.1524451e-38
0.63914394 0.034636658 0.69147211 1.1708844e-38
0.63811445 0.037152875 0.69135827 1.1524452e-38
0.64017403 0.040547583 0.69158697 1.1708483e-38
0.64300579 0.043690547 0.69139093 1.1616285e-38
0.64545292 0.046542369 0.69204593 1.1523724e-38
0.64692789 0.048248295 0.69293499 1.1616285e-38
0.64885569 0.050026972 0.69083911 1.0694332e-38
0.6503377 0.051740754 0.69173074 9.7727368e-39
0.65219516 0.053474754 0.69221967 9.1273674e-39
0.65469801 0.055245902 0.69201994 8.9429761e-39
0.65847349 0.057917587 0.6917187 8.9429761e-39
0.66225159 0.060603227 0.69143569 8.9429761e-39
0.66466445 0.062396243 0.69137311 9.0348116e-39
0.66708654 0.06419614 0.69131029 9.0351717e-39
0.67073846 0.066909879 0.69121552 1.0786529e-38
0.67291725 0.067801453 0.69267893 1.3552397e-38
0.67441952 0.069638342 0.69110954 1.3828983e-38
0.67664814 0.070582427 0.69128627 1.3736786e-38
0.67962158 0.071538344 0.69194919 1.3736786e-38
0.71284395 -0.067032233 0.69338775 1.087908e-38
0.71458852 -0.067912325 0.69541579 1.3646394e-38
0.70975727 -0.064053677 0.69518 1.0417382e-38
0.71187782 -0.065942965 0.69558334 1.2262013e-38
0.70656317 -0.06041269 0.69335324 1.1616289e-38
0.70815927 -0.062232159 0.69426614 1.1431897e-38
0.70109123 -0.055568352 0.6950621 1.1616648e-38
0.69871742 -0.052861206 0.69370031 1.1616285e-38
0.69555968 -0.04913377 0.69438314 1.1708844e-38
0.69682479 -0.050897412 0.69560015 1.1708845e-38
0.69398832 -0.046714026 0.69430679 1.1616648e-38
0.69190824 -0.043684583 0.69433415 1.1708483e-38
0.68927848 -0.040049277 0.69451225 1.1616645e-38
0.69059211 -0.041864969 0.69442403 1.1615921e-38
0.68666381 -0.036429733 0.69468558 1.1616645e-38
0.6879679 -0.038237385 0.69460171 1.1708482e-38
0.68536353 -0.034625903 0.6947698 1.1708845e-38
0.68340957 -0.031951204 0.6942811 1.1616651e-38
0.68435174 -0.03280073 0.695804 1.1708845e-38
0.68045187 -0.027468015 0.69483161 2.8599577e-39
0.68167901 -0.029252622 0.69481272 7.7451938e-39
0.67917097 -0.025682831 0.69490701 2.8599577e-39
0.67714113 -0.023024475 0.69451708 2.8599577e-39
0.67443347 -0.019189907 0.69442099 2.8599577e-39
0.67534471 -0.020349361 0.69513428 2.8599577e-39
0.67151767 -0.015080672 0.69414103 2.9517946e-39
0.67257637 -0.016247021 0.69469506 2.8599577e-39
0.67030352 -0.01332224 0.69416517 2.9521547e-39
0.66794932 -0.0098186862 0.69414341 2.8599591e-39
0.66945946 -0.011555925 0.69504863 2.9521547e-39
0.66565239 -0.006329868 0.69407034 2.8599577e-39
0.66706276 -0.0080578895 0.69507474 2.8599591e-39
0.66455394 -0.0045918822 0.6939851 2.8599577e-39
0.66253281 -0.001109424 0.69487643 3.5045998e-39
0.66362751 -0.0028407983 0.69496351 2.9521519e-39
0.66071266 0.0017698562 0.6947329 9.0355543e-39
0.68039423 0.0013129581 0.69356626 3.3209512e-39
0.6585111 0.0052159945 0.69458574 1.0971279e-38
0.65702951 0.0075079976 0.69450724 1.078652e-38
0.6555329 0.0097946562 0.69444793 1.0786886e-38
0.65314466 0.013217558 0.69452029 1.0694692e-38
0.65048063 0.016909068 0.69407034 1.0970917e-38
0.65139991 0.016063523 0.69556701 1.0049322e-38
0.64894158 0.019458683 0.69448799 1.0602496e-38
0.64715493 0.022281677 0.69434947 1.069469e-38
0.6444096 0.026224419 0.69318438 1.1432257e-38
0.64537752 0.025378074 0.69462073 1.0418105e-38
0.64370227 0.028465984 0.69478565 1.0141519e-38
0.64140117 0.032108225 0.69398129 1.0418106e-38
0.64235884 0.031263471 0.69542217 9.4961499e-39
0.64007521 0.034620687 0.69418919 1.0049324e-38
0.63881975 0.037968744 0.69432372 1.1616649e-38
0.63940156 0.03628803 0.69492823 9.5883455e-39
0.64091986 0.040518649 0.69450819 1.1708482e-38
0.64390987 0.044217955 0.69455957 1.1523724e-38
0.64568049 0.046506383 0.69429129 1.1616284e-38
0.64725852 0.048214145 0.69506639 1.1708842e-38
0.6486361 0.049940724 0.69481814 1.0971277e-38
0.64993119 0.051667631 0.69466341 9.8649296e-39
0.65220886 0.053418253 0.69469702 9.1273674e-39
0.65517074 0.055180058 0.69524992 8.9429761e-39
0.6576376 0.056952685 0.69510192 8.9429761e-39
0.65972751 0.058743682 0.69412082 8.9429761e-39
0.66050136 0.058721434 0.69578582 9.0351717e-39
0.66260153 0.060519718 0.69480407 8.9429761e-39
0.66503394 0.062310185 0.69472241 8.9429761e-39
0.66783321 0.064130686 0.69426608 9.7727368e-39
0.67069042 0.065963283 0.69376087 1.2354214e-38
0.67288589 0.065992221 0.69520247 1.2999584e-38
0.67438531 0.067821607 0.69364172 1.3644592e-38
0.67658997 0.067851864 0.69508761 1.3736786e-38
0.67736495 0.069680363 0.69303906 1.3828984e-38
0.67957765 0.069711946 0.69448841 1.3828984e-38
0.68231869 0.070969321 0.69457054 1.3737146e-38
0.68480492 0.071615137 0.69534075 1.3737146e-38
0.71608579 -0.066981822 0.69768345 1.3646395e-38
0.71744651 -0.067967497 0.69760275 1.3646395e-38
0.7105996 -0.064008281 0.69683874 1.0876904e-38
0.71266186 -0.065002218 0.69730109 1.1800672e-38
0.71472812 -0.065996811 0.69776571 1.3461642e-38
0.70659286 -0.060766798 0.69747287 1.5027888e-38
0.70932597 -0.062080689 0.6980896 1.4843496e-38
0.70371926 -0.058238704 0.69741821 1.3368006e-38
0.70033234 -0.055347309 0.69830239 1.3368366e-38
0.69831562 -0.052620687 0.69783199 1.3183615e-38
0.69572955 -0.049026579 0.6966995 1.1708845e-38
0.69652355 -0.049861729 0.69838411 1.3091777e-38
0.69386393 -0.045957148 0.6977458 1.26308e-38
0.69229084 -0.043548249 0.69767624 1.1708842e-38
0.68971837 -0.03992559 0.6977936 1.1616644e-38
0.69102615 -0.041737258 0.69771111 1.1616645e-38
0.68807381 -0.037524793 0.69780588 1.2815193e-38
0.68605584 -0.034534171 0.69778872 1.3368366e-38
0.68363428 -0.030957267 0.69777691 1.3276171e-38
0.68478829 -0.032739494 0.69784003 1.1708845e-38
0.68089563 -0.027413148 0.69686013 2.8599577e-39
0.68194246 -0.028270388 0.69826674 6.8236257e-39
0.67986798 -0.025605775 0.69791442 2.9517946e-39
0.67723536 -0.022086125 0.69690382 2.8599577e-39
0.67875195 -0.023838345 0.69782126 2.8599577e-39
0.67613393 -0.019724151 0.69762748 2.9517946e-39
0.67390305 -0.016210021 0.69745606 2.9517946e-39
0.67152041 -0.013292938 0.6966238 2.9521547e-39
0.67233044 -0.013273433 0.69826049 2.9521547e-39
0.66984367 -0.010360452 0.6975438 2.9521547e-39
0.66735435 -0.0068656635 0.69766521 2.9521547e-39
0.66529673 -0.0045505986 0.69692993 2.8599591e-39
0.66405088 -0.0022278123 0.69782633 3.3209302e-39
0.6617927 0.0012275465 0.6977275 9.3121398e-39
0.65908909 0.0049569616 0.69728279 1.0418106e-38
0.66034842 0.0041027665 0.69842666 1.1155671e-38
0.65770769 0.0075319675 0.69750893 1.0325909e-38
0.65577555 0.010386123 0.69749951 9.9571266e-39
0.65752941 0.0092491405 0.69893605 1.1063476e-38
0.65309179 0.014367896 0.69747335 9.3113985e-39
0.65466511 0.012665793 0.69826996 1.0049324e-38
0.6506319 0.017764769 0.69639301 9.4961499e-39
0.65163076 0.016918462 0.69779956 9.1270072e-39
0.64986575 0.019461915 0.69721699 9.1273674e-39
0.64772332 0.022844674 0.69704652 9.1273674e-39
0.64864206 0.021717733 0.69770718 9.219563e-39
0.64630198 0.025373783 0.69734228 9.219563e-39
0.64429623 0.029017797 0.69744992 9.0351717e-39
0.64168137 0.032935925 0.69616139 9.1273674e-39
0.64263916 0.0320912 0.69759798 9.0351717e-39
0.64131582 0.03459949 0.69779915 8.9429761e-39
0.63982105 0.037385955 0.69736552 1.0694693e-38
0.64112842 0.039634023 0.69800317 1.1616285e-38
0.64244658 0.041336432 0.69780737 1.1708481e-38
0.64376771 0.043042906 0.69761002 1.1708482e-38
0.64509207 0.04475344 0.69741333 1.1615922e-38
0.64650273 0.04647129 0.6971252 1.1708842e-38
0.64784819 0.048190836 0.69691175 1.1708845e-38
0.64974433 0.049333375 0.69817334 1.0879083e-38
0.65082139 0.051655255 0.69618922 9.7723738e-39
0.65263939 0.052234173 0.69754434 9.219563e-39
0.65474653 0.053400762 0.69818324 8.9429761e-39
0.65666157 0.055167183 0.69738245 9.0351717e-39
0.65884179 0.056335717 0.69837052 8.9429761e-39
0.66181177 0.05869671 0.69811964 8.9429761e-39
0.66414976 0.060473152 0.69813466 8.9429761e-39
0.66653371 0.062258352 0.6981107 8.9429761e-39
0.67001998 0.064120561 0.6969465 9.4039542e-39
0.67448854 0.065981477 0.69726259 1.115567e-38
0.67898619 0.067854464 0.69758075 1.1708483e-38
0.68337977 0.069730118 0.69803667 1.1708483e-38
0.68628895 0.071637124 0.69631171 1.3737145e-38
0.68846023 0.071665905 0.69782811 1.3736787e-38
0.70020628 -0.086123429 0.69965297 1.79767e-38
0.71829581 -0.066064209 0.70049763 1.3738229e-38
0.71344376 -0.064060852 0.69901788 1.2354572e-38
0.71547151 -0.064087078 0.70075846 1.2170182e-38
0.70932221 -0.060805064 0.69974536 1.3552395e-38
0.71261209 -0.062113211 0.70106488 9.8638422e-39
0.70573395 -0.058193471 0.70038247 1.2815193e-38
0.70110023 -0.054419983 0.70001459 1.4935689e-38
0.70309383 -0.055658836 0.70092529 1.4566548e-38
0.7004652 -0.052594088 0.70064402 1.4198126e-38
0.69794804 -0.049551692 0.70026153 1.410557e-38
0.69983566 -0.050772037 0.70126796 1.3183612e-38
0.69514501 -0.046217833 0.69976282 1.4474351e-38
0.69693643 -0.046529591 0.70126885 1.3091779e-38
0.69297385 -0.04349912 0.69946557 1.4382151e-38
0.6949147 -0.043514047 0.70122802 1.3091777e-38
0.6916191 -0.0404999 0.70000249 1.419776e-38
0.69344676 -0.040813055 0.70146143 1.26308e-38
0.75484031 -0.040992469 0.70199668 1.8623154e-38
0.68882394 -0.036307976 0.6999346 1.4198127e-38
0.69071609 -0.03751336 0.70090961 1.3091418e-38
0.68828332 -0.034522057 0.70048022 1.3552758e-38
0.68585318 -0.031540204 0.70005673 1.3829344e-38
0.6877436 -0.032738999 0.70102501 1.2815193e-38
0.68309361 -0.028267968 0.69956601 9.220698e-39
0.68489164 -0.028573677 0.70103174 7.6533807e-39
0.68089348 -0.025594734 0.69933897 3.6900981e-39
0.68274534 -0.025600597 0.70115489 3.5979039e-39
0.67975748 -0.022490257 0.70050013 3.4131483e-39
0.68146056 -0.023821894 0.70122927 3.5975451e-39
0.67699194 -0.019104494 0.70004225 2.9517946e-39
0.67889905 -0.020275585 0.70137757 3.5975451e-39
0.67438895 -0.015010891 0.69983995 2.9517946e-39
0.67592633 -0.016753668 0.70072544 3.2287514e-39
0.67355919 -0.01324505 0.70069587 3.4131469e-39
0.6713233 -0.010337285 0.70012808 3.2287514e-39
0.67294645 -0.011494573 0.7013284 3.4131469e-39
0.6686666 -0.0071405256 0.69959438 3.4131469e-39
0.67042375 -0.0074350066 0.70106053 3.8744992e-39
0.72077125 -0.0081442147 0.69972092 1.0681367e-38
0.66728055 -0.0045362907 0.69980359 3.8744992e-39
0.66933876 -0.0045487806 0.70136327 3.8744992e-39
0.66516352 -0.0010785349 0.69954526 4.5198588e-39
0.66749853 -0.0023827916 0.70081061 3.8744992e-39
0.6620878 0.0023807604 0.6990661 1.0786894e-38
0.66436934 0.0015103961 0.70037639 9.4047067e-39
0.66665524 0.00063937902 0.70168793 5.9946007e-39
0.65980464 0.0058209058 0.6990009 1.1155671e-38
0.66187888 0.004960231 0.70052046 1.1155671e-38
0.66410136 0.0040953904 0.70188874 1.1524455e-38
0.65926176 0.0075361542 0.69957423 1.1063476e-38
0.66104913 0.0075350907 0.70139194 1.097128e-38
0.65698934 0.01095854 0.69950849 1.1063476e-38
0.65904427 0.010102967 0.70103753 1.097128e-38
0.65549201 0.013803497 0.70027399 1.097128e-38
0.65751219 0.012666448 0.7014221 1.0879084e-38
0.6768716 0.012717456 0.70038372 7.9039749e-39
0.65288317 0.01692234 0.70016932 1.097128e-38
0.6549806 0.01607319 0.70163769 1.097128e-38
0.65048051 0.019464064 0.69903219 9.0351717e-39
0.65187418 0.019465396 0.70124465 1.097128e-38
0.64976269 0.021718318 0.70062399 9.5883455e-39
0.64722437 0.025369504 0.70005774 8.9429761e-39
0.64819282 0.024526756 0.70148367 8.9429761e-39
0.64489186 0.029568253 0.70010281 8.9429761e-39
0.64577478 0.028447716 0.7007947 1.1524085e-38
0.64356625 0.032078501 0.70030057 8.9429761e-39
0.64271331 0.034581594 0.70122313 1.2907384e-38
0.64097774 0.037083276 0.70063812 1.1616647e-38
0.64189214 0.039607234 0.70087993 1.1708482e-38
0.64338243 0.041312359 0.70049965 1.2630434e-38
0.64480907 0.043020204 0.70019215 1.1708482e-38
0.6464985 0.04430341 0.70095974 1.2907385e-38
0.70795649 0.042280946 0.70190561 1.9545471e-38
0.64774245 0.046452507 0.6995005 1.1708845e-38
0.64940137 0.046449982 0.70142144 1.3828983e-38
0.65025759 0.048171472 0.7005055 1.2169463e-38
0.65235615 0.049901433 0.70073122 1.1708481e-38
0.6539585 0.05164003 0.70025814 1.1801041e-38
0.65625125 0.052240506 0.70111275 1.1616649e-38
0.65859377 0.053419121 0.70151281 1.1801041e-38
0.65862828 0.055149052 0.70024335 1.1801041e-38
0.66134381 0.056051042 0.70108283 1.1801041e-38
0.66406655 0.056954663 0.70192516 1.1801041e-38
0.66410685 0.058694892 0.70065129 1.1801041e-38
0.65766221 0.061981585 0.70076501 1.0133235e-38
0.66569781 0.060461298 0.700221 1.1801041e-38
0.66795939 0.061644305 0.70115298 1.0049324e-38
0.67163324 0.064073771 0.70021808 1.0233715e-38
0.67584652 0.06591548 0.70080709 1.1340062e-38
0.67986733 0.067793287 0.7003879 1.1708844e-38
0.68231118 0.067839764 0.70159709 1.5857647e-38
0.68556452 0.067941517 0.70199353 1.5857647e-38
0.6852625 0.069737807 0.69983238 1.5765447e-38
0.68853545 0.069844194 0.70022655 1.5857647e-38
0.71850574 -0.064162239 0.70276588 1.5304472e-38
0.71017665 -0.060125977 0.70220339 1.1985432e-38
0.71118766 -0.06010323 0.70368302 1.1063474e-38
0.71463764 -0.062066525 0.70403171 1.0048961e-38
0.71805674 -0.062259413 0.70442766 1.7146217e-38
0.72197723 -0.062583797 0.70312971 1.8530236e-38
0.724038 -0.060902126 0.70362461 1.8253289e-38
0.70724905 -0.058160231 0.7025978 1.1801041e-38
0.70843261 -0.058158234 0.70390379 1.2630801e-38
0.72610384 -0.059216425 0.70412076 1.7700115e-38
0.70444232 -0.054458611 0.70288593 1.2630433e-38
0.70627147 -0.055848237 0.70355463 1.2538604e-38
0.7031219 -0.052622709 0.70295274 1.2354209e-38
0.70513773 -0.052646577 0.70466387 1.8623154e-38
0.70097667 -0.04957692 0.70301515 1.4197767e-38
0.70323992 -0.049938716 0.70406681 1.8623516e-38
0.70594549 -0.049761396 0.7046935 1.843876e-38
0.69818807 -0.045348987 0.70290101 1.5581061e-38
0.70056605 -0.046613783 0.70342064 1.6687406e-38
0.70336688 -0.04644217 0.70394218 1.8714983e-38
0.70642978 -0.046567895 0.7046299 1.83462e-38
0.74063414 -0.047530971 0.70276761 1.5027888e-38
0.74267745 -0.045800656 0.70333368 1.5304473e-38
0.69786489 -0.043568604 0.7032218 1.5396667e-38
0.70106351 -0.043703765 0.70374936 1.9176324e-38
0.70322442 -0.042918954 0.70408201 1.9175964e-38
0.70651507 -0.043059669 0.70454669 1.8807903e-38
0.70986658 -0.042324334 0.70496643 1.7056192e-38
0.74575174 -0.043197446 0.70418525 1.6410458e-38
0.69474852 -0.040823456 0.70262593 1.1616649e-38
0.69761246 -0.040922649 0.70347208 1.9176327e-38
0.7009145 -0.041061979 0.70389622 1.9084127e-38
0.70307481 -0.040273495 0.704229 1.9176324e-38
0.70636046 -0.040408157 0.70469761 1.8346929e-38
0.70987099 -0.040562421 0.70496207 1.5120083e-38
0.74997312 -0.0406835 0.70399278 1.9268524e-38
0.75320333 -0.039031256 0.70349687 1.853096e-38
0.69236135 -0.037228554 0.70254695 1.1616649e-38
0.69412756 -0.037278794 0.70324481 1.9268885e-38
0.69741535 -0.03740979 0.70366752 1.9175964e-38
0.70065153 -0.037535783 0.70415545 1.8807177e-38
0.70277321 -0.037616294 0.70452511 1.8530596e-38
0.70501578 -0.03858475 0.7047832 1.8254733e-38
0.70986575 -0.038799647 0.7049672 1.5027888e-38
0.7496621 -0.03884083 0.70427883 1.8807544e-38
0.69102508 -0.034553073 0.70265388 1.5488504e-38
0.69398087 -0.034651253 0.70339096 1.9268884e-38
0.69735241 -0.034184683 0.70413923 1.8715349e-38
0.70005095 -0.033984669 0.70474744 1.8530957e-38
0.7555728 -0.035475116 0.70380026 1.9176327e-38
0.68896395 -0.031567957 0.70267105 1.2815204e-38
0.69150239 -0.031933919 0.70340598 1.8807908e-38
0.69457746 -0.032036956 0.70402688 1.8807907e-38
0.69750178 -0.031254336 0.70480943 1.8807908e-38
0.75712901 -0.03002321 0.70485097 1.6962541e-38
0.68609309 -0.027404249 0.70269108 1.0880221e-38
0.68833619 -0.028624868 0.70330209 1.8162539e-38
0.69149518 -0.028134242 0.70423293 1.8900104e-38
0.69409728 -0.029385742 0.70450449 1.8900104e-38
0.68571746 -0.025644079 0.70307034 1.0511822e-38
0.68849105 -0.025715102 0.70396531 1.7425341e-38
0.69096583 -0.025199829 0.70476198 1.7425348e-38
0.68254858 -0.022951419 0.70258641 4.0588974e-39
0.68530405 -0.023017727 0.70348763 4.5202497e-39
0.6880753 -0.023084791 0.7043826 6.9169508e-39
0.74938476 -0.022478748 0.70453387 1.521119e-38
0.67951709 -0.019115265 0.70238924 4.1514574e-39
0.68290144 -0.019478939 0.70345891 4.4280527e-39
0.68559855 -0.019536648 0.70441824 4.4280513e-39
0.68761122 -0.020454284 0.70484847 4.4280471e-39
0.74664831 -0.02057606 0.70458925 1.6870713e-38
0.74821013 -0.018851336 0.70314747 1.7516084e-38
0.67771149 -0.015894117 0.70259154 4.4280513e-39
0.6799621 -0.015645675 0.70357513 4.3358529e-39
0.6824258 -0.016271833 0.70434952 4.3358529e-39
0.7451241 -0.016030667 0.70353162 1.7239495e-38
0.75836051 -0.016981505 0.70375806 1.6503015e-38
0.67605633 -0.013837126 0.70264548 4.151456e-39
0.6796062 -0.013317259 0.70434672 4.3358529e-39
0.67426562 -0.01034744 0.70284289 3.8744992e-39
0.67679834 -0.010375732 0.70434362 4.3358529e-39
0.67826366 -0.011556268 0.70448512 4.3358529e-39
0.74304265 -0.011465125 0.70299411 1.7977422e-38
0.67108876 -0.006286718 0.70201457 3.8744992e-39
0.6733411 -0.0071662618 0.70338297 3.8744992e-39
0.67559654 -0.0080466401 0.7047534 3.8744992e-39
0.67071211 -0.004557116 0.70240384 3.8744992e-39
0.67277378 -0.0045696292 0.70396602 3.8744992e-39
0.73969018 -0.0050536804 0.70364857 1.4936089e-38
0.6685884 -0.0010966193 0.7021414 3.8744992e-39
0.67080039 -0.0019692453 0.70354211 3.7823021e-39
0.67308313 -0.002845088 0.70487487 3.8744992e-39
0.73612678 -0.00047290698 0.70451516 7.3775842e-39
0.66750842 0.0019302997 0.70326179 8.2987361e-39
0.66995382 0.00062676985 0.70441532 4.3354647e-39
0.66456717 0.0052397642 0.70304298 1.1524455e-38
0.6664235 0.0049476502 0.70438671 1.1432261e-38
0.66287041 0.0075332746 0.70317471 1.1616649e-38
0.66418314 0.0075298743 0.7042613 1.1616649e-38
0.73077178 0.0067801634 0.70462441 4.9816034e-39
0.66141701 0.010101929 0.70346612 1.097128e-38
0.66356802 0.0092443358 0.70490146 1.1616649e-38
0.72845691 0.010379119 0.70435059 5.1656402e-39
0.65683258 0.014371529 0.70213979 1.097128e-38
0.65898311 0.013518044 0.70356226 1.2815193e-38
0.66131783 0.013510555 0.70479673 1.8807547e-38
0.65532184 0.017204912 0.70291686 1.3552755e-38
0.65841842 0.016915523 0.70415592 1.8715711e-38
0.66134793 0.01690609 0.70476526 1.8715713e-38
0.65363097 0.019465281 0.70306826 1.0879084e-38
0.65552092 0.019462356 0.70352513 1.8807908e-38
0.65844089 0.019457655 0.70413244 1.8715713e-38
0.66137058 0.019452937 0.7047416 1.8439126e-38
0.64994979 0.022843044 0.70206624 1.097128e-38
0.65266722 0.021999942 0.70286262 1.6779605e-38
0.65554327 0.021999985 0.70350152 1.8715713e-38
0.65846336 0.021999985 0.70410883 1.8070343e-38
0.66139317 0.021999985 0.70471799 1.5949844e-38
0.647681 0.026207875 0.70203209 1.7055824e-38
0.64970052 0.025370851 0.70233232 1.8992298e-38
0.65266466 0.025377508 0.70286536 1.8531322e-38
0.65557301 0.025383752 0.70347011 1.751717e-38
0.65849328 0.025390022 0.70407736 1.5120083e-38
0.66142333 0.02539631 0.70468652 1.4382518e-38
0.64727062 0.028728064 0.70247185 1.7055826e-38
0.6497255 0.029018886 0.70312589 1.89923e-38
0.65260762 0.02847109 0.70333534 1.8070343e-38
0.65531719 0.028764561 0.7037403 1.539667e-38
0.65838927 0.028778782 0.70418674 1.456691e-38
0.66142523 0.02879262 0.70468438 1.456691e-38
0.71492863 0.028191583 0.70498043 8.8523261e-39
0.64594007 0.032080099 0.70266986 1.7055827e-38
0.64940327 0.032098707 0.70387888 1.8900104e-38
0.65250516 0.032120634 0.7042616 1.7056192e-38
0.65562201 0.032142669 0.70464623 1.4935692e-38
0.65893644 0.031320632 0.7048378 1.4751301e-38
0.71318161 0.03172211 0.70420986 1.5488171e-38
0.64474791 0.034587979 0.70272112 1.6963626e-38
0.64709967 0.034600645 0.70388371 1.705619e-38
0.64988935 0.034621958 0.70458698 1.8623517e-38
0.65195668 0.034640219 0.70484304 1.6503018e-38
0.66115123 0.034730837 0.70497072 1.5304475e-38
0.71143723 0.035247173 0.70344055 1.8438764e-38
0.6435588 0.037090577 0.70277238 1.6871429e-38
0.64669037 0.037110809 0.70432138 1.705619e-38
0.64952594 0.036296703 0.70497358 1.8439126e-38
0.65658331 0.038069285 0.70485848 1.5304475e-38
0.65896577 0.037252784 0.70480704 1.5027888e-38
0.66119123 0.037277959 0.70492899 1.4843496e-38
0.70791119 0.036963321 0.70441216 1.7147303e-38
0.70969552 0.038766779 0.70267254 1.9268525e-38
0.64378035 0.0396121 0.70253348 1.5672896e-38
0.64627767 0.040473815 0.70353597 1.5211917e-38
0.64877504 0.041337181 0.70454788 1.5857648e-38
0.65204716 0.041384436 0.70474702 1.5581061e-38
0.65567249 0.040596947 0.70459336 1.5212279e-38
0.65907013 0.04064516 0.70469761 1.4843496e-38
0.66119373 0.040673137 0.70492637 1.4843496e-38
0.70597422 0.040464412 0.70384532 1.7977783e-38
0.64716351 0.043022268 0.70258659 1.3921539e-38
0.64961177 0.043888688 0.70365608 1.5212279e-38
0.65244234 0.043926612 0.70432818 1.5304475e-38
0.65589905 0.043985851 0.70435405 1.4935692e-38
0.65907252 0.044035271 0.70469511 1.4843496e-38
0.66121125 0.044068873 0.70490801 1.4935692e-38
0.66347665 0.043256376 0.70499665 1.5120083e-38
0.70361406 0.043944433 0.70369941 1.8069981e-38
0.65203011 0.046462655 0.70353872 1.5488864e-38
0.65590161 0.046522774 0.70435143 1.4843496e-38
0.65907443 0.046577878 0.70469308 1.4843496e-38
0.66123497 0.046616167 0.70488328 1.4843496e-38
0.69498181 0.047268175 0.70485228 2.0006087e-38
0.69754875 0.046446398 0.70476294 2.0006089e-38
0.70126188 0.047412757 0.70355392 1.825437e-38
0.70528334 0.045757443 0.70205992 2.0098645e-38
0.65285635 0.048183654 0.70266128 1.1985432e-38
0.65521431 0.049353641 0.70303011 1.244641e-38
0.6583544 0.049114615 0.70422339 1.3829344e-38
0.66145372 0.049172062 0.70465481 1.4659105e-38
0.66362441 0.050064817 0.70484275 1.4290323e-38
0.69242162 0.048956204 0.70494473 2.0282307e-38
0.69517624 0.049890064 0.70465916 2.0005719e-38
0.69817966 0.049964804 0.70413882 1.8991577e-38
0.7022984 0.049206398 0.70253211 2.0006089e-38
0.72382021 0.050067261 0.70311379 7.3775786e-39
0.65920055 0.051695403 0.70333397 1.1340062e-38
0.66172844 0.05288313 0.70354968 1.2630801e-38
0.66471577 0.052365553 0.70452541 1.4290323e-38
0.66627187 0.05353868 0.70454401 1.4290323e-38
0.69494885 0.052494604 0.70488495 2.04667e-38
0.6993289 0.052637525 0.70300192 2.0006089e-38
0.66454333 0.055802967 0.70306826 1.1155671e-38
0.66713411 0.056405436 0.70446843 1.2169823e-38
0.69484454 0.05423221 0.70498848 2.0559258e-38
0.70016843 0.054427974 0.70217139 2.0375233e-38
0.66753268 0.058724016 0.70323652 1.097128e-38
0.69720846 0.057840973 0.70264137 2.0283039e-38
0.66823274 0.060473349 0.7025103 1.0049324e-38
0.67042965 0.061355632 0.70392448 1.0879084e-38
0.67283475 0.064000994 0.70390308 1.3552758e-38
0.67637455 0.064975373 0.70395809 1.6595213e-38
0.67937911 0.065955006 0.70334917 1.5857648e-38
0.68261606 0.066052273 0.70374835 1.5857648e-38
0.68586576 0.06614992 0.70414913 1.5673257e-38
0.68856955 0.067434266 0.70306706 1.5765451e-38
0.69022226 0.066280827 0.70468622 1.539667e-38
0.71270311 -0.060069147 0.70590073 1.0325911e-38
0.71620405 -0.060268164 0.70620793 1.7331328e-38
0.72001797 -0.060573615 0.70500553 1.7146577e-38
0.7097742 -0.058174469 0.70505607 1.1893236e-38
0.71206403 -0.058230624 0.70651895 1.5120082e-38
0.71505624 -0.058367185 0.70731091 1.8623517e-38
0.71815592 -0.058584437 0.7067883 1.7423524e-38
0.72207075 -0.05889421 0.70550126 1.7238415e-38
0.72412837 -0.057210788 0.7059983 1.7239135e-38
0.70711833 -0.054489538 0.70518523 1.1616648e-38
0.70911062 -0.055457313 0.7057007 1.5027525e-38
0.71211636 -0.055591412 0.70646858 1.8530959e-38
0.71518028 -0.055731442 0.70719165 1.8531322e-38
0.71723038 -0.055825185 0.70767438 1.8070343e-38
0.72113913 -0.056056838 0.70761657 1.7239497e-38
0.72619104 -0.055523351 0.70649642 1.5765451e-38
0.70715994 -0.052735656 0.70514464 1.8531319e-38
0.70922738 -0.051948905 0.70558733 1.8346199e-38
0.71227992 -0.052081913 0.70631051 1.8438762e-38
0.71534592 -0.052215744 0.70703256 1.7609365e-38
0.71829611 -0.052653108 0.70747185 1.5765453e-38
0.7215842 -0.05255685 0.70719284 1.5120083e-38
0.72441459 -0.052727543 0.70695436 1.5027888e-38
0.72783762 -0.052640755 0.70657617 1.4935692e-38
0.73143989 -0.05225125 0.70645386 1.5581061e-38
0.70724034 -0.050985649 0.70506626 1.8346196e-38
0.7093485 -0.04932037 0.70546961 1.8531317e-38
0.71240318 -0.049448814 0.70619142 1.8254735e-38
0.71556646 -0.049587764 0.70682067 1.6226431e-38
0.71870822 -0.048898686 0.70625949 1.5212279e-38
0.72147715 -0.049055729 0.70606756 1.4935692e-38
0.72409165 -0.049196932 0.70603323 1.4935692e-38
0.72777498 -0.049383603 0.70622635 1.4935692e-38
0.73136377 -0.049559899 0.70652544 1.5581061e-38
0.73430783 -0.048835203 0.70621896 1.5581061e-38
0.70946968 -0.046690807 0.70535189 1.8346566e-38
0.71217257 -0.047093797 0.70600533 1.7148387e-38
0.71575063 -0.046699226 0.70582694 1.5488866e-38
0.71936983 -0.046304554 0.70562613 1.4935692e-38
0.72176045 -0.046418913 0.70579731 1.4935692e-38
0.72415906 -0.046533644 0.70596921 1.4935692e-38
0.72774553 -0.046703871 0.70625412 1.4935692e-38
0.73128766 -0.045974672 0.70659697 1.4935692e-38
0.73423123 -0.04613803 0.70629072 1.5581061e-38
0.73791289 -0.04547099 0.70530736 1.5027888e-38
0.70959151 -0.044060491 0.70523357 1.8162538e-38
0.71210968 -0.043302931 0.7052474 1.5581061e-38
0.71579182 -0.043478481 0.70537806 1.4935692e-38
0.71936184 -0.043642595 0.70563376 1.4935692e-38
0.72175235 -0.043752491 0.70580506 1.4935692e-38
0.72414684 -0.04386238 0.70598078 1.4935692e-38
0.72769809 -0.044022724 0.70629895 1.4935692e-38
0.73124343 -0.043287411 0.70663857 1.5212279e-38
0.73388803 -0.043417118 0.70661217 1.539667e-38
0.73671442 -0.043562897 0.70642585 1.5949844e-38
0.73960018 -0.043713562 0.70619524 1.5212279e-38
0.71222985 -0.040666468 0.70513111 1.5027888e-38
0.71578127 -0.039938167 0.70538819 1.4935692e-38
0.71935117 -0.040093407 0.70564395 1.4935692e-38
0.72173518 -0.040196802 0.70582139 1.4935692e-38
0.72409284 -0.040297523 0.70603204 1.4935692e-38
0.72764361 -0.040449146 0.70635051 1.4935692e-38
0.73137808 -0.04061608 0.70651197 1.5212279e-38
0.73397839 -0.040736571 0.70652759 1.5304475e-38
0.7365886 -0.04085752 0.70654327 1.5857648e-38
0.73920906 -0.040978938 0.70655894 1.8070342e-38
0.74182332 -0.041099437 0.70658982 1.9361077e-38
0.74555862 -0.040412173 0.7055952 1.7793031e-38
0.70476359 -0.036807172 0.70502996 1.8254735e-38
0.70722359 -0.037794076 0.70508254 1.6595213e-38
0.70982456 -0.037033837 0.70500726 1.5581061e-38
0.71222198 -0.038017917 0.70513868 1.4935692e-38
0.71577334 -0.037283003 0.70539594 1.4935692e-38
0.71934313 -0.037431587 0.70565164 1.4935692e-38
0.72169489 -0.037527822 0.7058599 1.4935692e-38
0.72404569 -0.037623651 0.70607686 1.4935692e-38
0.7276752 -0.03777539 0.7063207 1.5027888e-38
0.73070598 -0.036718402 0.70632672 1.5304475e-38
0.73415828 -0.037166424 0.70635909 1.604204e-38
0.73676956 -0.037280519 0.70637441 1.8254733e-38
0.73937607 -0.037393853 0.70640367 1.9268517e-38
0.74192888 -0.037502401 0.70649201 1.9637305e-38
0.74492234 -0.037647016 0.7061826 1.7700476e-38
0.74798304 -0.036889788 0.70582312 1.6871076e-38
0.75139236 -0.037064176 0.70515651 1.6963271e-38
0.70335662 -0.034108162 0.7051816 1.7056192e-38
0.70706844 -0.034264166 0.70523393 1.5673257e-38
0.7097075 -0.034381077 0.70512098 1.539667e-38
0.71221143 -0.034486599 0.70514888 1.4935692e-38
0.71576536 -0.0346279 0.70540351 1.4935692e-38
0.7193048 -0.034767404 0.70568836 1.4935692e-38
0.72166127 -0.034859695 0.70589197 1.4935692e-38
0.72404456 -0.03495384 0.70607793 1.4935692e-38
0.72647071 -0.035051066 0.70623159 1.5027888e-38
0.73039222 -0.03432487 0.70621288 1.5488866e-38
0.73429322 -0.034487695 0.70623267 1.8070343e-38
0.73690528 -0.034596644 0.70624775 1.9453275e-38
0.73945707 -0.034700513 0.70632827 1.9637665e-38
0.74198139 -0.034801871 0.70644343 1.917669e-38
0.74547863 -0.034027137 0.70689988 1.9452912e-38
0.74937749 -0.034184255 0.70700288 1.8623153e-38
0.75393283 -0.033527277 0.70529765 1.8345843e-38
0.70079625 -0.03137175 0.7052418 1.7701561e-38
0.7043246 -0.031506788 0.70545959 1.5765453e-38
0.7069521 -0.031617727 0.7053473 1.539667e-38
0.70959038 -0.031729113 0.70523471 1.539667e-38
0.7121824 -0.030954011 0.70517695 1.5120083e-38
0.71574259 -0.031086935 0.70542544 1.4935692e-38
0.71928322 -0.031217793 0.70570898 1.4935692e-38
0.72166204 -0.031306017 0.70589125 1.4935692e-38
0.72407401 -0.031396411 0.70604998 1.5027888e-38
0.72663677 -0.031497844 0.70607424 1.5304475e-38
0.73052663 -0.031652752 0.70608634 1.6595213e-38
0.73442829 -0.031807847 0.70610613 1.9176688e-38
0.73699379 -0.031908143 0.70616519 1.9637306e-38
0.73944587 -0.03199973 0.70633876 1.9361079e-38
0.74174702 -0.032079682 0.70666051 1.9176327e-38
0.74524975 -0.031299353 0.70711082 1.9452911e-38
0.74909717 -0.031445004 0.70725977 1.9914253e-38
0.75293487 -0.031634178 0.70620888 1.8622789e-38
0.69480264 -0.027652036 0.70503008 1.8807908e-38
0.69709814 -0.028605424 0.70520878 1.9084495e-38
0.70054817 -0.02872866 0.70548594 1.6226431e-38
0.70420897 -0.028866822 0.70557272 1.5488866e-38
0.70683575 -0.028972263 0.70546073 1.539667e-38
0.70947343 -0.029078145 0.70534837 1.539667e-38
0.71208286 -0.028299101 0.70527339 1.539667e-38
0.71573389 -0.028431956 0.70543391 1.4935692e-38
0.71928626 -0.028557122 0.70570612 1.4935692e-38
0.72166502 -0.028640937 0.70588839 1.4935692e-38
0.72418892 -0.028734848 0.70594072 1.5212279e-38
0.72681499 -0.027943825 0.7059055 1.5765451e-38
0.73025781 -0.028369747 0.70592993 1.8162538e-38
0.73370498 -0.02790018 0.70596582 1.9452915e-38
0.7368741 -0.02830605 0.70627689 1.9084132e-38
0.73915106 -0.028379263 0.70661294 1.9176688e-38
0.74261153 -0.028491702 0.7070896 1.9268521e-38
0.74630058 -0.028619407 0.70737064 1.9822055e-38
0.74899566 -0.028720489 0.70735288 1.9914255e-38
0.75228024 -0.028862126 0.7068066 2.0098645e-38
0.69211924 -0.024065915 0.70524603 1.8255107e-38
0.69448149 -0.025016658 0.70534897 1.8992301e-38
0.69750792 -0.024825132 0.70562202 1.6503018e-38
0.70067614 -0.025516396 0.70576882 1.539667e-38
0.70405495 -0.025348183 0.70572352 1.539667e-38
0.70668077 -0.025446305 0.70561194 1.539667e-38
0.70930517 -0.025544018 0.70551169 1.539667e-38
0.71197307 -0.025644295 0.70537961 1.539667e-38
0.7157144 -0.025776342 0.70545268 1.4935692e-38
0.71928924 -0.025896424 0.70570326 1.4935692e-38
0.72174954 -0.025981309 0.70580769 1.5212279e-38
0.72432196 -0.026073553 0.70581436 1.5488866e-38
0.72694868 -0.025277194 0.7057789 1.7424973e-38
0.7295413 -0.025368445 0.70578545 1.9176328e-38
0.73324144 -0.025492229 0.70599103 1.9084493e-38
0.73664212 -0.025595699 0.70649332 1.9176329e-38
0.73891819 -0.025664952 0.70682943 1.9084128e-38
0.7423805 -0.025771527 0.70730329 1.926852e-38
0.74632347 -0.025005015 0.7073496 1.8346569e-38
0.74889404 -0.025996637 0.70744598 2.0006452e-38
0.75085187 -0.024308655 0.7056517 1.6133509e-38
0.68978876 -0.022252455 0.70511985 5.2574476e-39
0.691957 -0.022316962 0.70540774 1.4475845e-38
0.69423693 -0.02238854 0.7055918 1.6964009e-38
0.69767159 -0.022496369 0.7058692 1.5120085e-38
0.70132512 -0.022617925 0.70594746 1.539667e-38
0.70393932 -0.022710182 0.70583659 1.539667e-38
0.70647889 -0.021918979 0.70580864 1.539667e-38
0.70911658 -0.022010243 0.70569503 1.5488866e-38
0.71181816 -0.022105327 0.70552957 1.5212279e-38
0.71558619 -0.022229291 0.70557618 1.5212279e-38
0.71932507 -0.022350792 0.70566893 1.5212279e-38
0.72187376 -0.022435011 0.70568919 1.5488866e-38
0.72443223 -0.022519553 0.70570952 1.6779602e-38
0.72700047 -0.022604417 0.7057299 1.8807181e-38
0.73069227 -0.022721145 0.70592999 1.9268882e-38
0.7340948 -0.022819294 0.70641857 1.9176327e-38
0.73637235 -0.022884963 0.70674515 1.9176325e-38
0.73938799 -0.022670722 0.70721215 1.9176328e-38
0.74224687 -0.023960385 0.70742691 1.9545111e-38
0.74498779 -0.022287067 0.7061221 1.6133511e-38
0.68861437 -0.019312667 0.70547861 4.8890365e-39
0.69167793 -0.019693026 0.70568579 5.8109885e-39
0.69398397 -0.019762006 0.70584297 9.9586526e-39
0.69744515 -0.019865125 0.70609277 1.392156e-38
0.70119739 -0.019985598 0.70607281 1.5304476e-38
0.70377672 -0.02007032 0.70599568 1.539667e-38
0.70629692 -0.019272905 0.70598608 1.539667e-38
0.70907456 -0.019367103 0.7057358 1.5581061e-38
0.7116794 -0.019450698 0.70566386 1.5212279e-38
0.71544939 -0.019567365 0.70570779 1.5212279e-38
0.71925503 -0.019685611 0.70573592 1.5488864e-38
0.72178894 -0.019763887 0.70577019 1.6226431e-38
0.72429359 -0.01895001 0.7058413 1.899194e-38
0.7268275 -0.019026123 0.70589375 1.9637303e-38
0.73040241 -0.019126786 0.70620292 1.9268525e-38
0.73362577 -0.019206829 0.7068578 1.8899738e-38
0.73589116 -0.019266624 0.70719421 1.9452912e-38
0.73915368 -0.019659718 0.70742989 1.9545471e-38
0.74279875 -0.018618394 0.70568609 1.7331694e-38
0.68563884 -0.016044039 0.70560479 4.6124482e-39
0.68893218 -0.016130263 0.70597655 4.8890449e-39
0.69124663 -0.016194262 0.7061156 4.8890449e-39
0.69435763 -0.015990239 0.70628995 5.2578232e-39
0.6976077 -0.016664712 0.70634061 8.8526778e-39
0.7009666 -0.016473869 0.70629954 1.3368757e-38
0.70353556 -0.016550966 0.70623165 1.4843864e-38
0.70624089 -0.016635351 0.70604074 1.5488867e-38
0.70902222 -0.016723767 0.70578665 1.539667e-38
0.7115407 -0.016797243 0.70579815 1.5212279e-38
0.71532863 -0.016907468 0.7058242 1.5304475e-38
0.71914035 -0.017018519 0.70584577 1.6042035e-38
0.72167361 -0.017091777 0.70588022 1.8070341e-38
0.72416943 -0.016272608 0.70595938 1.9637308e-38
0.72665036 -0.0163409 0.70606148 1.9637664e-38
0.73018867 -0.016433038 0.70640421 1.8715349e-38
0.73338115 -0.016506214 0.70708704 1.8715349e-38
0.73582619 -0.016571719 0.70725489 1.9729863e-38
0.7383725 -0.016642421 0.7073369 1.9729863e-38
0.6821934 -0.013361037 0.70540208 4.3358529e-39
0.68515688 -0.013424434 0.70608974 4.8890449e-39
0.68861061 -0.013513397 0.70629811 4.8890449e-39
0.69092357 -0.013572976 0.70643753 4.8890449e-39
0.69465995 -0.013675939 0.70639861 4.8890463e-39
0.69823253 -0.01289745 0.70653987 5.0737907e-39
0.70072687 -0.012964034 0.70653486 6.7329322e-39
0.70340741 -0.013039758 0.70635712 1.0511818e-38
0.70618761 -0.013120342 0.70609272 1.4106313e-38
0.70885885 -0.013195166 0.70594537 1.4935696e-38
0.71263194 -0.013294989 0.70597088 1.5304475e-38
0.71646321 -0.013397295 0.70595896 1.5949844e-38
0.71898746 -0.013463687 0.7059921 1.8162538e-38
0.7215097 -0.013529759 0.70603645 1.9361078e-38
0.72399139 -0.013593568 0.70612848 1.9729503e-38
0.72768265 -0.013687273 0.70631361 1.9268525e-38
0.73101771 -0.013762759 0.70685089 1.8715347e-38
0.73328495 -0.013814913 0.70717716 1.9822059e-38
0.73589098 -0.013883874 0.70719433 1.9729863e-38
0.73933959 -0.013993345 0.70643765 1.8346207e-38
0.67974395 -0.010711284 0.70543242 4.3358529e-39
0.68259656 -0.010764761 0.70622045 4.7046494e-39
0.68598604 -0.010844324 0.70647973 4.8890449e-39
0.68837839 -0.010903532 0.70653039 4.8890463e-39
0.6908806 -0.010967974 0.70648032 4.9812433e-39
0.69463044 -0.011064088 0.70642775 4.8890463e-39
0.69815719 -0.010276552 0.70661414 4.8890449e-39
0.70060045 -0.010335699 0.70665908 4.9816048e-39
0.70336771 -0.010409892 0.70639592 6.3641581e-39
0.70614767 -0.010484427 0.70613164 9.2214589e-39
0.70872098 -0.010549009 0.7060793 1.4014114e-38
0.71252346 -0.010642748 0.70607567 1.5212283e-38
0.7163505 -0.010737203 0.70606714 1.770156e-38
0.71881855 -0.0099096904 0.70615387 1.9361078e-38
0.72128421 -0.0099665988 0.70625162 1.9729862e-38
0.72375417 -0.010023502 0.70635402 1.9729863e-38
0.72740853 -0.010106205 0.70657265 1.9268527e-38
0.7307741 -0.010175463 0.70707977 1.9176324e-38
0.73336172 -0.010236869 0.70710522 1.9821695e-38
0.73597741 -0.01029936 0.70711374 1.9637306e-38
0.67644835 -0.0069055273 0.70551848 4.151456e-39
0.67949837 -0.0069529419 0.70649856 4.7046466e-39
0.68260622 -0.007594503 0.70661861 4.8890463e-39
0.68586057 -0.0073814038 0.70660573 4.9812433e-39
0.68837619 -0.0074398825 0.7065326 4.9812433e-39
0.69090188 -0.0074985977 0.70645911 4.9812433e-39
0.69457805 -0.007581403 0.70647955 4.8890449e-39
0.69812435 -0.0076580914 0.70664656 4.8890463e-39
0.70067221 -0.0077169538 0.70658857 4.9812433e-39
0.70332801 -0.0077803675 0.70643473 4.9816048e-39
0.70608628 -0.0078479489 0.70619154 5.8113501e-39
0.70860398 -0.0079049021 0.70619291 7.8389014e-39
0.71241879 -0.0079915784 0.70617688 1.364571e-38
0.71623504 -0.0080779297 0.70617819 1.8438767e-38
0.71864706 -0.0072433576 0.70631808 1.9636942e-38
0.72110736 -0.0072953105 0.7064203 1.9729862e-38
0.72357637 -0.0073474441 0.706523 1.9729865e-38
0.72720313 -0.0074221259 0.70676672 1.9268887e-38
0.730802 -0.0074953102 0.7070536 1.9822058e-38
0.73341918 -0.0075528491 0.7070514 1.9822058e-38
0.73708194 -0.0076531265 0.70608288 1.6225722e-38
0.67483723 -0.0045821518 0.70552951 3.8744992e-39
0.67634642 -0.0045958348 0.70643777 4.3358529e-39
0.67963177 -0.0046572145 0.70677149 4.9812433e-39
0.68337584 -0.0038741892 0.70665747 4.9812433e-39
0.68588161 -0.0039255852 0.70658457 4.9812433e-39
0.68839747 -0.0039771898 0.70651138 4.9812433e-39
0.69092333 -0.0040290002 0.70643783 4.9812433e-39
0.69450772 -0.004098508 0.70654935 4.8890449e-39
0.69825041 -0.00417371 0.70652223 4.9812433e-39
0.70081782 -0.004226407 0.70644557 4.9812433e-39
0.70338869 -0.0042790594 0.70637548 4.8894064e-39
