# .PCD v0.7 - Point Cloud Data file format
VERSION 0.7
FIELDS x y z rgb
SIZE 4 4 4 4
TYPE F F F F
COUNT 1 1 1 1
WIDTH 1026
HEIGHT 1
VIEWPOINT 0 0 0 1 0 0 0
POINTS 1026
DATA ascii
0.63264841 0.22134921 0.63922679 1.1525894e-38
0.63436878 0.22064883 0.63986307 1.161773e-38
0.63609058 0.21994874 0.64050233 1.161809e-38
0.62903559 0.22403307 0.64087313 6.0852703e-39
0.63077635 0.22267357 0.64012599 1.0050767e-38
0.62781364 0.22620039 0.64055049 7.3760077e-39
0.62567896 0.22934274 0.64043707 7.4685621e-39
0.62341982 0.23285331 0.63958502 6.3618558e-39
0.62418681 0.23184812 0.64134806 6.915031e-39
0.62095952 0.23672032 0.63988644 6.0852689e-39
0.62218893 0.23501454 0.64108294 6.4547703e-39
0.61939406 0.23895624 0.64045203 6.3625747e-39
0.61718798 0.24202281 0.6404599 6.4547703e-39
0.61434537 0.24591486 0.63991308 4.8867271e-39
0.61563355 0.24424291 0.64102268 5.8104799e-39
0.61279702 0.248124 0.64047754 5.4409785e-39
0.61059093 0.25115058 0.64051342 6.6395217e-39
0.60828853 0.25412595 0.64067876 6.6405965e-39
0.60531831 0.25790358 0.64034027 2.1341551e-39
0.60648584 0.25643313 0.64022821 2.3181863e-39
0.6037963 0.25987208 0.64044857 2.1341551e-39
0.60153598 0.26282233 0.64059174 2.1341551e-39
0.59935278 0.26579028 0.64064711 2.1341551e-39
0.5964731 0.26973984 0.6406967 2.1341551e-39
0.59754926 0.26826024 0.64068002 2.1341551e-39
0.59504789 0.27171162 0.64070845 2.1341551e-39
0.59287643 0.2746439 0.64077741 2.1341551e-39
0.59041959 0.27788579 0.64032102 2.1341551e-39
0.58776534 0.28141272 0.64103317 2.1341551e-39
0.58869833 0.28015351 0.63982952 2.1341551e-39
0.58607501 0.28368053 0.64051145 2.1341551e-39
0.58358806 0.28686705 0.640127 2.1341551e-39
0.58097661 0.29016852 0.64036936 2.1341551e-39
0.58209002 0.28875339 0.6402719 2.1341551e-39
0.57875633 0.29299045 0.64056504 2.1341551e-39
0.57986546 0.29158074 0.64046806 2.1341551e-39
0.57691413 0.29533401 0.64072627 2.1341551e-39
0.57479548 0.29799488 0.64035523 2.1341551e-39
0.57144177 0.30214962 0.64072746 2.1341551e-39
0.57325423 0.30000365 0.64103693 2.1341551e-39
0.56877881 0.30515036 0.64065403 2.1341551e-39
0.57041633 0.30303204 0.63937515 2.1341551e-39
0.56651664 0.30806533 0.6400575 2.1341551e-39
0.56740993 0.30703789 0.64067316 2.1341551e-39
0.564915 0.31092224 0.64039677 2.1341551e-39
0.56340647 0.31354249 0.64061564 2.1341551e-39
0.56447607 0.31269127 0.64189208 2.1341551e-39
0.56213683 0.31628236 0.64051604 2.1341551e-39
0.56233805 0.32023191 0.64024395 2.861345e-39
0.5633105 0.32254958 0.64074492 1.5709761e-39
0.63146555 0.32531157 0.6418528 1.0694693e-38
0.56794906 0.32881814 0.63995159 1.5709761e-39
0.57191259 0.33308059 0.64010197 1.5709761e-39
0.5750379 0.3352226 0.64139104 1.5709761e-39
0.58257353 0.34087056 0.63964111 1.5709761e-39
0.58804238 0.3453728 0.64067578 1.5709761e-39
0.59469342 0.35055524 0.64025944 2.7691535e-39
0.63468015 0.22104891 0.64352238 1.0695773e-38
0.63754636 0.21984464 0.64280438 1.2079068e-38
0.64075327 0.22010757 0.64437908 1.3554558e-38
0.62994891 0.22394478 0.64246446 8.0228191e-39
0.63177127 0.22286911 0.64386076 1.0142961e-38
0.6285122 0.22648591 0.64329392 4.8006397e-39
0.63018048 0.22536418 0.64486802 3.7864878e-39
0.62587094 0.23009315 0.64334202 4.8017173e-39
0.62745726 0.22850418 0.64411402 3.7904409e-39
0.6233654 0.23328997 0.64234406 5.1672657e-39
0.62482232 0.2321016 0.64416045 3.4220185e-39
0.62188005 0.23577929 0.64325041 4.1567081e-39
0.6196785 0.23885401 0.64324313 4.1567081e-39
0.61709625 0.24242 0.64326251 4.0652299e-39
0.61820167 0.24089351 0.64325494 4.2492624e-39
0.6147154 0.24561672 0.64215225 5.3516583e-39
0.61553019 0.24462834 0.643839 3.0535961e-39
0.61306024 0.24799401 0.64329332 3.6971677e-39
0.62608385 0.24646203 0.64451808 5.5368385e-39
0.6108343 0.25100628 0.64335316 3.6056909e-39
0.60816073 0.25447357 0.64352977 3.4220171e-39
0.60929549 0.25298578 0.64346671 2.9617592e-39
0.60567331 0.25758213 0.64259273 2.1341551e-39
0.60655808 0.25662202 0.64417899 2.1341551e-39
0.6040206 0.25990528 0.64376044 2.1341551e-39
0.60179681 0.262862 0.64385688 2.1341551e-39
0.59901416 0.2664564 0.64287382 2.1341551e-39
0.60033107 0.26483256 0.64390576 2.1341551e-39
0.5968253 0.26939946 0.64294809 2.1341551e-39
0.59813923 0.26777935 0.64397824 2.1341551e-39
0.59527272 0.27171078 0.64401847 2.1341551e-39
0.59317493 0.27446982 0.64354515 2.1341551e-39
0.59036314 0.2781921 0.64309478 2.1341551e-39
0.59144115 0.27673569 0.64306235 2.1341551e-39
0.58894747 0.2801384 0.6431126 2.1341551e-39
0.58682966 0.28304988 0.64313978 2.1341551e-39
0.58433092 0.28622597 0.64276987 2.1341551e-39
0.58524603 0.28528666 0.64428353 2.1341551e-39
0.58122325 0.29031056 0.64410359 2.1341551e-39
0.58275527 0.28826365 0.64346194 2.1341551e-39
0.57864571 0.29378235 0.64476472 2.1341551e-39
0.579849 0.2918632 0.64319515 2.1341551e-39
0.57585615 0.29685044 0.64301991 2.1341551e-39
0.57725531 0.29531798 0.64388537 2.1341551e-39
0.57443219 0.29873332 0.64309126 2.1341551e-39
0.57225841 0.30152759 0.64325672 2.1341551e-39
0.56952757 0.30531651 0.64327061 2.1341551e-39
0.57042813 0.30383593 0.64342678 2.1341551e-39
0.56824863 0.30742484 0.64361846 2.1341551e-39
0.566176 0.31060129 0.64322656 2.1341551e-39
0.5670206 0.30955315 0.64390326 2.1341551e-39
0.56394678 0.31405663 0.64260316 2.1341551e-39
0.56485128 0.31311852 0.64409757 2.1341551e-39
0.5627138 0.31633705 0.6433571 2.1341551e-39
0.56276149 0.31910133 0.64329273 4.7974378e-39
0.56375539 0.3221789 0.64286017 1.5709761e-39
0.56470287 0.32372832 0.64429617 1.5709761e-39
0.56473815 0.3248786 0.6428957 1.5709761e-39
0.56823254 0.32937688 0.64499116 1.5709761e-39
0.5682593 0.33001721 0.64225155 1.5709761e-39
0.57141972 0.33217543 0.64346528 1.5709761e-39
0.57489556 0.33451104 0.64428216 1.5709761e-39
0.57820195 0.33738762 0.64264601 1.5709761e-39
0.58130527 0.33951974 0.64399713 1.5709761e-39
0.58443654 0.34230876 0.64263314 1.5709761e-39
0.5904696 0.34713012 0.64295846 1.5709761e-39
0.59441549 0.3497467 0.64331281 2.4003724e-39
0.63682717 0.2209774 0.64633048 1.3554198e-38
0.63916487 0.22115643 0.64757913 1.8497182e-39
0.64323306 0.22032708 0.64548159 1.3554558e-38
0.63221681 0.22372061 0.64645034 1.0235516e-38
0.63336802 0.2221707 0.64641845 1.097236e-38
0.61195695 0.22742763 0.64579147 1.0694693e-38
0.6295011 0.22686844 0.64567989 2.409663e-39
0.63066596 0.22599891 0.64696109 4.5251333e-39
0.62791044 0.22934423 0.64669132 2.1341551e-39
0.62550896 0.23237295 0.64690018 2.1341551e-39
0.62320638 0.23498476 0.64611 2.1341551e-39
0.62050486 0.23830441 0.64581239 2.1341551e-39
0.62158698 0.23741533 0.64717501 2.1341551e-39
0.61783379 0.24204887 0.64638287 2.1341551e-39
0.61895907 0.2405325 0.64635086 2.1341551e-39
0.6163404 0.24406768 0.64641994 2.1341551e-39
0.6141066 0.2470873 0.64647591 2.1341551e-39
0.61151445 0.25038791 0.64609051 2.1341551e-39
0.61248302 0.24946278 0.64757442 2.1341551e-39
0.60879439 0.2540406 0.64676762 2.1341551e-39
0.60994589 0.25256249 0.64668357 2.1341551e-39
0.60729927 0.25602129 0.64683276 2.1341551e-39
0.60504955 0.25897834 0.64694744 2.1341551e-39
0.60252869 0.2622489 0.64651871 2.1341551e-39
0.5997256 0.2660315 0.64600813 2.1341551e-39
0.60105842 0.26441789 0.64701664 2.1337964e-39
0.59827924 0.268197 0.64648563 2.1337964e-39
0.59619808 0.27116963 0.64642823 2.1341551e-39
0.59717602 0.27025604 0.6478734 2.1337978e-39
0.59337187 0.27489614 0.64598203 2.1341551e-39
0.59476292 0.27332231 0.64690077 2.1337964e-39
0.59089637 0.27792019 0.64510483 2.1341551e-39
0.59222835 0.27671584 0.64698726 2.1337964e-39
0.5895279 0.28032473 0.64685094 2.1337964e-39
0.58726704 0.28311315 0.64616567 2.1341551e-39
0.5839929 0.28720951 0.64590025 2.1341551e-39
0.58540106 0.28566688 0.64677215 2.1337964e-39
0.58142895 0.29070312 0.64652759 2.1341551e-39
0.58251381 0.28928334 0.64646649 2.1337964e-39
0.57998466 0.29259163 0.64660919 2.1337964e-39
0.5778088 0.2954084 0.64675248 2.1341551e-39
0.57496774 0.2988058 0.6459837 2.1341551e-39
0.57631654 0.29762548 0.64780289 2.1341551e-39
0.57245725 0.3020702 0.64614111 2.1341551e-39
0.57384759 0.30054948 0.64700377 2.1341551e-39
0.57071471 0.30441514 0.64619559 2.1341551e-39
0.56881672 0.30767176 0.64691085 2.1337964e-39
0.56667912 0.31125653 0.64705497 2.1341551e-39
0.56758982 0.30926514 0.64584506 2.1341551e-39
0.56516546 0.31351259 0.64637709 2.1341551e-39
0.56366181 0.31577113 0.64568955 2.1341551e-39
0.56429678 0.31715292 0.64753532 2.411821e-39
0.56336486 0.31889331 0.64608693 3.6049888e-39
0.56437618 0.31965548 0.64742947 2.411821e-39
0.56434172 0.32202676 0.64657718 2.2238537e-39
0.56588286 0.32591856 0.64676881 1.5709761e-39
0.56590337 0.32706106 0.64539301 1.5709761e-39
0.56908721 0.32922786 0.6465528 1.5709761e-39
0.57194829 0.33152932 0.64681113 1.5709761e-39
0.606947 0.33151934 0.64662695 4.246471e-39
0.57508516 0.33398712 0.64672649 1.5709761e-39
0.57838678 0.33685684 0.6451025 1.5709761e-39
0.5809232 0.33867019 0.64718258 1.5709761e-39
0.5837329 0.34127373 0.64623576 1.5709761e-39
0.58684611 0.3437337 0.64625722 1.5709761e-39
0.59054351 0.34620416 0.64689624 1.5709761e-39
0.5941388 0.34894204 0.64635128 1.9397572e-39
0.64113367 0.22121698 0.64926612 1.8507902e-39
0.64310354 0.22127758 0.65095395 2.037324e-39
0.63247406 0.22495474 0.65013951 1.4200291e-38
0.63455451 0.22284676 0.64901179 1.4660906e-38
0.63749903 0.22280996 0.65041965 1.4660906e-38
0.62999403 0.22797301 0.65042102 2.1341551e-39
0.63132465 0.22582701 0.64884251 6.0906639e-39
0.62891245 0.22886565 0.64904881 2.1341551e-39
0.62652206 0.23189628 0.64923978 2.1341551e-39
0.62760085 0.2310046 0.65061045 2.1341551e-39
0.62341934 0.23572615 0.64896536 2.1341551e-39
0.62492156 0.23412496 0.6498239 2.1341551e-39
0.6207521 0.23883295 0.64818358 2.1341551e-39
0.62219852 0.23765029 0.64998978 2.134874e-39
0.61956394 0.24097347 0.64961898 2.2270696e-39
0.61694986 0.24428892 0.64923596 2.2267095e-39
0.61860824 0.24318962 0.65077364 2.4125385e-39
0.61440289 0.24782595 0.64922756 2.3203429e-39
0.61599159 0.24628089 0.64995623 2.505453e-39
0.61160421 0.25082958 0.64865172 2.1341551e-39
0.6134764 0.24981904 0.64991421 2.5983675e-39
0.61037141 0.25333595 0.64927566 2.5983675e-39
0.61228085 0.25234461 0.65048647 2.5983675e-39
0.60823035 0.25634548 0.64924353 2.5980088e-39
0.61013538 0.25535762 0.65045226 2.5983675e-39
0.60513824 0.25983381 0.64861894 2.5054544e-39
0.60701108 0.25883868 0.64985824 2.504381e-39
0.60293138 0.26278812 0.64869016 2.4118266e-39
0.60445786 0.26167285 0.64946204 2.2245781e-39
0.60167295 0.26524138 0.64936733 2.2252928e-39
0.60350239 0.26423877 0.65064633 1.9408432e-39
0.5991506 0.2686801 0.64940339 2.2245767e-39
0.6007781 0.26719707 0.65003753 2.0369709e-39
0.5966537 0.27230865 0.64986408 2.130949e-39
0.59824103 0.27061859 0.65009719 1.9440564e-39
0.59360051 0.27592278 0.64970678 1.8532803e-39
0.59511596 0.27401516 0.64957529 2.0383904e-39
0.57525879 0.27809876 0.64886332 2.9578636e-39
0.59219235 0.27787057 0.64970714 1.945836e-39
0.59006393 0.28077468 0.64973587 1.8536376e-39
0.58719605 0.28423026 0.64893597 2.0398141e-39
0.58863276 0.28308201 0.65066516 1.759298e-39
0.58461595 0.2875396 0.64911932 2.0398141e-39
0.58606935 0.28602207 0.64993012 1.8536376e-39
0.5832026 0.28963798 0.6495983 2.0394638e-39
0.58068341 0.29275709 0.64927906 2.2256417e-39
0.58237404 0.29173785 0.65066326 1.9437005e-39
0.57820874 0.29606727 0.64936066 2.1323713e-39
0.57977307 0.2946215 0.65000951 2.1309462e-39
0.57556909 0.29891169 0.64877796 2.4121798e-39
0.57728672 0.29791474 0.65011173 2.0383946e-39
0.57430559 0.3012234 0.64953446 2.2252872e-39
0.57601655 0.30022794 0.65087062 1.85043e-39
0.57187271 0.30423325 0.64932698 2.1330902e-39
0.57389176 0.30302787 0.65096593 1.9429816e-39
0.56908262 0.30805361 0.64924526 2.0401715e-39
0.57011819 0.30665335 0.64921987 2.0398197e-39
0.56694657 0.3116312 0.64938641 2.0390981e-39
0.56785667 0.31017327 0.64952254 1.9469038e-39
0.5658946 0.31383157 0.64943904 2.0394624e-39
0.56581312 0.31706706 0.6495474 2.0380345e-39
0.56583577 0.31953824 0.64951718 1.9447654e-39
0.56584108 0.32200009 0.64951009 1.7575113e-39
0.56616342 0.32463598 0.64908314 1.7560946e-39
0.56821066 0.32613868 0.64950192 1.7557345e-39
0.5701232 0.32691598 0.65055323 1.7557345e-39
0.56994104 0.32907897 0.64811295 1.5709761e-39
0.57171857 0.3291308 0.64979684 1.7557345e-39
0.57391298 0.33137095 0.6496011 1.7557345e-39
0.57553208 0.33360839 0.6488263 1.7557345e-39
0.57775736 0.33473274 0.64994752 1.7557345e-39
0.57813001 0.33608198 0.6481238 1.5709761e-39
0.5814597 0.33833706 0.64916849 1.5709761e-39
0.58450419 0.34075144 0.64926267 1.5709761e-39
0.58781838 0.34332025 0.64903265 1.5709761e-39
0.58866072 0.34315485 0.65062952 1.5709761e-39
0.59217572 0.34583834 0.65017259 1.5709761e-39
0.59535956 0.34866181 0.6488235 2.0319542e-39
0.5970608 0.34865284 0.6506868 2.5851252e-39
0.65369153 0.22162524 0.65368682 7.6529561e-39
0.63820302 0.22374815 0.65268552 1.2632242e-38
0.64091158 0.22250587 0.65217626 9.046675e-39
0.64348876 0.22363064 0.6531539 3.4335218e-39
0.64528483 0.22469686 0.65372133 3.5260733e-39
0.63148451 0.22737269 0.65219218 4.5337582e-39
0.63419318 0.22580212 0.65209061 1.0150148e-38
0.6361714 0.22500873 0.6537379 1.0608262e-38
0.65053064 0.2273654 0.65297991 3.0586548e-39
0.62906474 0.23039703 0.65240651 2.5058131e-39
0.63094366 0.22942287 0.65327221 3.2473298e-39
0.63378596 0.228062 0.65389097 3.2473298e-39
0.62644386 0.23318484 0.65198803 2.2270696e-39
0.62818372 0.23296039 0.6534512 3.2473298e-39
0.62503999 0.23597716 0.65277737 2.5983675e-39
0.62704068 0.2355606 0.6539247 3.2473298e-39
0.65956998 0.23401457 0.65327662 2.8714049e-39
0.62321919 0.23803087 0.65230423 2.3199841e-39
0.66754431 0.23898876 0.65225804 2.4032815e-39
0.62017381 0.24162725 0.65154028 2.3199841e-39
0.6219179 0.24055617 0.65297937 2.3199841e-39
0.66988599 0.24113967 0.65229368 2.8642667e-39
0.61962789 0.24407557 0.65272748 2.5980074e-39
0.67190272 0.24318585 0.65269834 3.2330464e-39
0.61697024 0.24727632 0.65186906 2.4125385e-39
0.61915177 0.24679923 0.65365344 3.061861e-39
0.61395419 0.25084126 0.65110421 2.5983675e-39
0.61595809 0.25009057 0.65265173 2.5987262e-39
0.61823606 0.25029418 0.65387285 3.3406045e-39
0.61180401 0.25385934 0.65106893 2.5983675e-39
0.61386681 0.25313556 0.65253717 2.691282e-39
0.61616212 0.25335035 0.65372872 3.3402457e-39
0.61058146 0.25636074 0.65167803 2.504381e-39
0.61320549 0.25627565 0.65334123 2.9682416e-39
0.60797197 0.25981343 0.65177786 2.0362562e-39
0.61031085 0.25920945 0.65289325 2.4054115e-39
0.61293662 0.25871581 0.65366787 2.590893e-39
0.60517812 0.26276493 0.65123308 1.8482931e-39
0.60729784 0.26207879 0.65260613 2.2181616e-39
0.61045319 0.26221746 0.65360266 2.4951226e-39
0.60295922 0.26570171 0.6513195 1.8482931e-39
0.60512793 0.26504111 0.6526233 2.12561e-39
0.60767817 0.26537991 0.65346444 2.4947625e-39
0.60958683 0.264844 0.65377706 2.4951226e-39
0.6016981 0.26814389 0.65199775 1.9408502e-39
0.60456419 0.26818129 0.65331829 2.4947611e-39
0.60727561 0.26774824 0.65395796 2.4947611e-39
0.59869117 0.27200207 0.65219593 1.940846e-39
0.60149246 0.27098179 0.65313792 2.3100041e-39
0.60326189 0.27040362 0.65359932 2.4947611e-39
0.5954836 0.2753545 0.65177733 1.9419194e-39
0.59821355 0.27451181 0.65323424 2.402557e-39
0.6009655 0.27327931 0.65379041 2.4947611e-39
0.59323317 0.27821556 0.65194625 1.9419194e-39
0.59564471 0.27788317 0.65334654 2.4025528e-39
0.59867811 0.27614379 0.65398067 2.4947611e-39
0.59006029 0.2815448 0.65151799 1.6645996e-39
0.59220469 0.28090632 0.65279853 2.4036248e-39
0.59454429 0.28035307 0.65383995 2.4943911e-39
0.58791852 0.28442305 0.65157324 1.8493608e-39
0.5900324 0.2837764 0.65288353 2.2188804e-39
0.59236562 0.28322744 0.65392286 2.3103614e-39
0.58676893 0.28684258 0.65214854 1.9412062e-39
0.58858013 0.28670329 0.65339291 2.2181658e-39
0.58441758 0.29024112 0.65204215 1.7560932e-39
0.58608621 0.28929639 0.65301734 2.0330515e-39
0.58185303 0.29314858 0.65133291 1.7557317e-39
0.58368337 0.29238307 0.65298086 1.8482931e-39
0.58057421 0.29547608 0.6520896 1.7557317e-39
0.58227605 0.29446721 0.65345246 1.6635361e-39
0.57807642 0.29875943 0.65220237 1.7560876e-39
0.57963508 0.29731795 0.6528545 1.6638948e-39
0.57539153 0.302479 0.65257114 1.6638934e-39
0.57713985 0.30059093 0.65296978 1.6635361e-39
0.57226527 0.30578223 0.65175414 1.7575197e-39
0.57377696 0.30478808 0.65289342 1.6638934e-39
0.56966496 0.30859798 0.65115535 1.9429816e-39
0.57140005 0.30780506 0.65288472 1.6638948e-39
0.63615757 0.30620587 0.65375412 4.2471913e-39
0.56878728 0.31101385 0.65230876 1.8493679e-39
0.57004929 0.30985904 0.6533196 1.6635361e-39
0.56849235 0.31372818 0.65269661 1.9412132e-39
0.56825769 0.31683618 0.65247154 1.940853e-39
0.56864256 0.31899843 0.6524995 2.1252471e-39
0.57010788 0.31973183 0.65324283 2.2178057e-39
0.5681417 0.32203573 0.65182316 2.2178057e-39
0.57102382 0.32238522 0.65337706 2.2178057e-39
0.56925225 0.32479644 0.65169764 2.0330515e-39
0.57134408 0.32567143 0.65251398 1.9404915e-39
0.5726043 0.32704741 0.65264529 2.0330501e-39
0.57452369 0.32871872 0.65281117 1.8482959e-39
0.57566386 0.33140618 0.65132904 1.7557345e-39
0.57741165 0.33143947 0.65306187 1.7557331e-39
0.57842326 0.3336494 0.65175438 1.7557331e-39
0.58041149 0.33512533 0.65229839 1.7557331e-39
0.58245921 0.3359769 0.65321791 2.2181672e-39
0.58361989 0.33770734 0.65239733 1.9404915e-39
0.58647972 0.33860981 0.65340263 2.1256086e-39
0.58629906 0.34048682 0.65230346 1.8482931e-39
0.58854973 0.34079272 0.65343148 2.12561e-39
0.59008014 0.34299502 0.65282261 1.8482931e-39
0.59350407 0.34562409 0.65249115 1.5709761e-39
0.59883869 0.34868681 0.6524545 2.4940212e-39
0.64046729 0.2239074 0.65401387 3.433519e-39
0.63585013 0.22663055 0.65411353 5.1816458e-39
0.63776875 0.22600988 0.65451324 1.1069955e-38
0.64009672 0.2265458 0.65532327 1.5215882e-38
0.64342248 0.22653902 0.65499032 3.5264334e-39
0.64628899 0.22724706 0.6552031 3.5260733e-39
0.63483769 0.22930075 0.654419 3.2484088e-39
0.63720667 0.22928041 0.65516794 3.4320812e-39
0.64012939 0.22966461 0.65572464 7.1141639e-39
0.64317918 0.23008884 0.65614766 1.282347e-38
0.64674294 0.22981082 0.65599978 1.8625678e-38
0.64915162 0.22934195 0.65587509 1.0799109e-38
0.65142119 0.22901535 0.65460163 3.2455558e-39
0.63131654 0.23193198 0.65415329 3.433519e-39
0.63407189 0.23227017 0.65487581 3.3406045e-39
0.63789576 0.23276907 0.65568411 3.4338777e-39
0.64097428 0.23234634 0.65606189 3.4331602e-39
0.64290881 0.23259939 0.65645921 5.1834423e-39
0.64656949 0.23236145 0.65619874 1.4022369e-38
0.65000904 0.23291363 0.6562112 1.8072506e-38
0.65297312 0.2317535 0.65546966 1.0612217e-38
0.65571064 0.233138 0.65499926 3.1522854e-39
0.62901092 0.23498063 0.65423298 3.433519e-39
0.63179755 0.23533693 0.65490735 3.3413233e-39
0.63463646 0.23570955 0.65553248 3.5260733e-39
0.63742828 0.23584299 0.65578884 3.4338791e-39
0.64078188 0.23487768 0.65628439 3.4331602e-39
0.64274347 0.23514318 0.65664977 3.4331602e-39
0.64638877 0.2357773 0.65640587 4.9994097e-39
0.64980388 0.2354594 0.65644491 1.2178818e-38
0.65199912 0.23492479 0.6565758 1.8072506e-38
0.65501726 0.23511004 0.65666157 1.2820604e-38
0.66046554 0.23567349 0.6549052 2.7767121e-39
0.62605125 0.23820685 0.65421939 3.433519e-39
0.62860584 0.23827304 0.65471172 3.433519e-39
0.63143623 0.23865089 0.65533239 3.433519e-39
0.63456672 0.23913208 0.65561402 3.5264334e-39
0.63793749 0.238186 0.65607423 3.433519e-39
0.64062011 0.23828328 0.65647137 3.5260733e-39
0.64265645 0.23857895 0.65675002 3.433519e-39
0.64583826 0.23884207 0.65659851 3.6189892e-39
0.64959896 0.23800334 0.65667856 5.090169e-39
0.65179318 0.23747313 0.65680969 1.1994786e-38
0.66157246 0.23740152 0.65629476 2.5887476e-39
0.62249994 0.2416258 0.65404618 3.4328001e-39
0.62537128 0.24117455 0.65458715 3.4331588e-39
0.62821704 0.24156675 0.65517139 3.3413233e-39
0.63097817 0.24170928 0.65543181 3.5264334e-39
0.63444346 0.24167329 0.65575814 3.4331602e-39
0.63749993 0.24126776 0.65614438 3.4338777e-39
0.64059567 0.24173519 0.65649974 3.433519e-39
0.64338118 0.24187072 0.6567927 3.5260733e-39
0.64720798 0.24107018 0.6567809 3.5264334e-39
0.64939409 0.24054581 0.65691203 3.5264334e-39
0.62233943 0.24413078 0.65423793 3.4328001e-39
0.62510753 0.24450302 0.65490061 3.4331588e-39
0.62811559 0.2449607 0.65529126 3.5264334e-39
0.63164371 0.24409996 0.65552777 3.5260733e-39
0.63437694 0.24423382 0.65583587 3.5260733e-39
0.63748419 0.24471517 0.65616268 3.5260733e-39
0.64054394 0.24431215 0.65655947 3.433519e-39
0.64406246 0.24428368 0.65688515 3.4342378e-39
0.66804183 0.243652 0.65697294 2.7724382e-39
0.67072445 0.24592313 0.65663391 3.1412179e-39
0.62024027 0.24805358 0.65410841 3.4328001e-39
0.62301588 0.24758296 0.65475154 3.3409646e-39
0.62599862 0.24804017 0.65516096 3.5264334e-39
0.62810791 0.24753049 0.65530044 3.5264334e-39
0.63130879 0.24720171 0.65548223 3.5260733e-39
0.6344136 0.24769269 0.65579307 3.5257146e-39
0.63715047 0.24783021 0.65611213 3.4331616e-39
0.64049536 0.24688974 0.65661573 3.4328029e-39
0.64326394 0.24760783 0.65692765 3.3381073e-39
0.64716083 0.24800822 0.65683484 3.1501484e-39
0.64951169 0.2475532 0.65677804 3.0568808e-39
0.65172899 0.24704641 0.65688264 3.0565136e-39
0.67341918 0.24820453 0.65629351 1.0145889e-38
0.62001169 0.25052622 0.65438259 3.3406045e-39
0.62285745 0.25094122 0.65494078 3.4335204e-39
0.6259951 0.25060752 0.65516508 3.6186291e-39
0.62818837 0.2501331 0.65520525 3.5260761e-39
0.63141704 0.25068006 0.65535498 3.2462704e-39
0.63448358 0.2503027 0.65571129 3.3391807e-39
0.63780934 0.25022939 0.65622306 3.0572297e-39
0.640499 0.25035098 0.6566115 2.8703399e-39
0.64276987 0.2507489 0.65661931 2.7745738e-39
0.64632612 0.25052792 0.65647769 2.6809502e-39
0.64974451 0.25024951 0.65651268 2.5873182e-39
0.65176308 0.25054777 0.65684384 2.5873182e-39
0.67340845 0.24997498 0.65630525 1.3924808e-38
0.61784106 0.25440121 0.65434831 3.2476942e-39
0.61915493 0.25347319 0.6545307 3.2462662e-39
0.62286031 0.25350508 0.65493751 3.3370367e-39
0.62612051 0.25322366 0.6550163 3.1494309e-39
0.62835634 0.25362712 0.65500665 2.8692735e-39
0.63115674 0.25380757 0.65522164 2.5894664e-39
0.6344856 0.25288799 0.65570891 2.6820166e-39
0.63754427 0.25336993 0.65609288 2.5880371e-39
0.64089441 0.25395751 0.65615416 2.6795181e-39
0.64316094 0.25349224 0.65616864 2.6798768e-39
0.64662725 0.25324512 0.6561324 2.5876798e-39
0.64979005 0.25375089 0.65646082 2.5873196e-39
0.65253693 0.25388312 0.65684205 2.5873211e-39
0.65629894 0.25394499 0.65696454 2.6795181e-39
0.67066932 0.25298429 0.65669477 1.1067479e-38
0.61673999 0.25675172 0.6543541 2.6848752e-39
0.61968923 0.25637031 0.65476936 2.6816635e-39
0.62183738 0.25589827 0.65483797 2.7745752e-39
0.62517315 0.25650921 0.65482306 2.6805915e-39
0.62851375 0.25711891 0.65482068 2.5876812e-39
0.6318602 0.2562187 0.65527338 2.5873196e-39
0.63458753 0.25637272 0.6555897 2.5873211e-39
0.6374256 0.25656435 0.65579212 2.5873225e-39
0.64128399 0.25669986 0.65570366 2.6795181e-39
0.64355445 0.25624013 0.65571523 2.6795181e-39
0.64681327 0.25679153 0.65591896 2.5873182e-39
0.64984614 0.25638527 0.65639687 2.5873196e-39
0.65198815 0.25673693 0.65658832 2.6795181e-39
0.6553551 0.25644353 0.65671748 2.6795195e-39
0.65891689 0.25621375 0.65664488 2.5876812e-39
0.66130733 0.25664747 0.65659148 2.5876812e-39
0.6642707 0.25596759 0.65678567 2.5873211e-39
0.66715449 0.25679466 0.65664423 2.5876812e-39
0.61368191 0.26047933 0.65408546 2.4947611e-39
0.61624593 0.2597512 0.65450984 2.5873196e-39
0.61978835 0.25896597 0.65465045 2.6798768e-39
0.62200284 0.25937754 0.6546402 2.6798782e-39
0.6249218 0.2596249 0.6546818 2.6795181e-39
0.62861681 0.25973308 0.65469891 2.5873211e-39
0.63165128 0.25936723 0.6550796 2.5873211e-39
0.63480282 0.25990212 0.65533805 2.5873225e-39
0.63702732 0.25944057 0.65537691 2.6795181e-39
0.640441 0.25920212 0.65536392 2.5876812e-39
0.64382166 0.25981122 0.65540737 2.5873196e-39
0.64652067 0.25994405 0.65581566 2.5873196e-39
0.64993072 0.25903088 0.65630049 2.5873211e-39
0.65219653 0.25943249 0.65635169 2.5876826e-39
0.65509582 0.25962809 0.65657246 2.495124e-39
0.65941316 0.25902814 0.6560874 2.5876812e-39
0.66180634 0.25946736 0.65603292 2.5876812e-39
0.66403717 0.25984526 0.6561693 3.048295e-39
0.66607797 0.25927043 0.65652514 5.9052637e-39
0.61155742 0.26348245 0.65402097 2.4951226e-39
0.61348701 0.26294687 0.65432179 2.5869595e-39
0.61700684 0.26216763 0.65447319 2.6798782e-39
0.61987931 0.26241165 0.65454137 2.6798782e-39
0.62203413 0.2628054 0.65460277 2.6798768e-39
0.62569261 0.26205719 0.65464562 2.6798782e-39
0.62872469 0.26235011 0.65457135 2.5873211e-39
0.63144571 0.26251647 0.65488166 2.5873211e-39
0.63410813 0.26330721 0.65483379 2.6795181e-39
0.63734126 0.26215208 0.65501112 2.5876812e-39
0.6405443 0.26270455 0.65524399 2.5876812e-39
0.64383817 0.26242131 0.6553883 2.5873196e-39
0.64722222 0.26237914 0.65588886 2.5873211e-39
0.65011889 0.2625879 0.65608597 2.495124e-39
0.65205485 0.26287037 0.65651256 2.4029256e-39
0.6556356 0.26179612 0.65640098 2.7720766e-39
0.65903705 0.26283991 0.65563488 2.5876812e-39
0.66193026 0.26303124 0.65589428 3.2323233e-39
0.66390532 0.26243913 0.65631634 6.9194086e-39
0.61057812 0.26606283 0.6543324 2.495124e-39
0.61344397 0.26547462 0.654374 2.6795181e-39
0.61664796 0.26522005 0.65446544 2.6798768e-39
0.61987138 0.26581854 0.65455091 5.2602572e-39
0.62203717 0.2653684 0.65459913 2.8642681e-39
0.62543213 0.26517111 0.65451533 2.7720738e-39
0.62886858 0.26584083 0.6544013 2.5873211e-39
0.63094437 0.26533985 0.6545915 2.6795181e-39
0.63455105 0.26541558 0.65475464 2.5876798e-39
0.63729811 0.26559046 0.65506148 2.5876798e-39
0.64011902 0.26578987 0.65529782 2.5876826e-39
0.64384198 0.2650266 0.65538394 2.6798782e-39
0.64656693 0.26575887 0.65576273 2.4951226e-39
0.64923304 0.26559597 0.65622014 2.4032871e-39
0.6518591 0.26541388 0.65673482 2.7720766e-39
0.65467173 0.26515865 0.65617478 2.7720766e-39
0.65815574 0.26558352 0.65574968 2.6795153e-39
0.66173911 0.26559836 0.6561082 7.8413607e-39
0.60790765 0.26946062 0.65450764 2.4951226e-39
0.6100657 0.26818788 0.65451658 2.5876826e-39
0.61340964 0.26800552 0.65441561 2.7720752e-39
0.61664295 0.26861966 0.65447152 3.6936616e-39
0.61987799 0.26837879 0.65454292 1.2080524e-38
0.62209195 0.26795244 0.65453368 1.0606125e-38
0.62557304 0.26865298 0.65434778 4.8918377e-39
0.62895733 0.26845223 0.65429634 2.6795167e-39
0.63102424 0.26795125 0.6544975 2.5876798e-39
0.63408822 0.26847079 0.65485704 2.5876798e-39
0.63717425 0.26899648 0.65520573 2.5876812e-39
0.64085388 0.26823232 0.65532452 2.6798782e-39
0.64384305 0.26849884 0.65538269 2.6798782e-39
0.64673299 0.26893443 0.65601063 2.4029256e-39
0.6495173 0.26845604 0.65677166 2.4029256e-39
0.65224075 0.26817882 0.65630144 2.7720766e-39
0.65574569 0.26884085 0.65627623 2.9564637e-39
0.65963703 0.26789203 0.65583593 7.2889184e-39
0.66161168 0.26730889 0.65625083 1.1620283e-38
0.60483438 0.27142504 0.65430915 2.4951226e-39
0.60770798 0.27191001 0.65475219 2.5876826e-39
0.61105508 0.2708984 0.65463233 2.7720752e-39
0.6132769 0.27134332 0.65457654 2.8642681e-39
0.61619443 0.27163145 0.65457225 8.4860015e-39
0.61988914 0.27094096 0.65452957 9.5923406e-39
0.62214291 0.27138925 0.65447283 1.2264914e-38
0.62510931 0.27168274 0.65445882 1.2264555e-38
0.6287986 0.27096388 0.65448403 3.5092731e-39
0.63191295 0.27151334 0.65477198 2.5876812e-39
0.63499057 0.27204514 0.65511847 2.5876812e-39
0.63713551 0.27157187 0.65525079 2.6798782e-39
0.6404193 0.27131307 0.65538883 2.5876812e-39
0.6435076 0.27183715 0.65576917 2.5873211e-39
0.64604926 0.27192986 0.6563561 2.4029256e-39
0.64973974 0.27115604 0.65651816 2.6795195e-39
0.65197206 0.27156505 0.65660655 2.5873211e-39
0.65540922 0.2713359 0.65665662 5.1684273e-39
0.65943694 0.27044952 0.6560607 1.3003938e-38
0.60192972 0.27448562 0.65436321 2.4947625e-39
0.60442382 0.27461973 0.6548143 2.5873196e-39
0.60716635 0.27485612 0.65497458 2.6798796e-39
0.61090076 0.27421939 0.65482008 2.7720738e-39
0.61308205 0.27465349 0.65481281 6.1822079e-39
0.61645949 0.27449471 0.65469289 1.1527715e-38
0.61978054 0.27430573 0.65465981 1.3739314e-38
0.62199295 0.27474311 0.654652 1.1988328e-38
0.62527239 0.27452272 0.65470505 1.2356749e-38
0.6285615 0.2743004 0.65476429 1.0144791e-38
0.63168287 0.27486044 0.65504253 7.6566037e-39
0.63487905 0.27458644 0.65524888 2.6795153e-39
0.63760638 0.27448222 0.65558153 2.5873211e-39
0.6403442 0.27437779 0.65591431 2.5873211e-39
0.64298415 0.27509615 0.65637243 2.5873211e-39
0.64650923 0.27427265 0.6567055 2.5873211e-39
0.6494742 0.27366418 0.65682077 2.5873211e-39
0.65631163 0.27320576 0.65695029 9.5930777e-39
0.59639966 0.27899718 0.65417016 2.4947611e-39
0.59838206 0.27769154 0.65434897 2.4947611e-39
0.60124695 0.27735412 0.65476656 2.5873196e-39
0.60410321 0.27784881 0.65520877 2.6795181e-39
0.60780436 0.27721581 0.65507483 2.8642681e-39
0.61076039 0.27754477 0.65499091 8.4860029e-39
0.61303157 0.27802321 0.65487409 1.2817726e-38
0.61669928 0.27734882 0.65484387 8.5781971e-39
0.61962748 0.27765054 0.65484333 1.069832e-38
0.62250537 0.27792582 0.65492105 1.3554923e-38
0.62619591 0.27723375 0.65492684 1.364712e-38
0.62829626 0.27762246 0.65507776 1.0329178e-38
0.63109487 0.27785078 0.65529448 1.2632973e-38
0.63470137 0.2770994 0.6554566 4.6148892e-39
0.63768965 0.27760246 0.65592372 2.5873211e-39
0.64068818 0.27810717 0.65639269 2.5873211e-39
0.64381659 0.27692696 0.65672964 2.495124e-39
0.59515536 0.28120676 0.65440118 2.4947583e-39
0.59867388 0.28044653 0.65486926 2.5873196e-39
0.60122788 0.28034183 0.65523082 2.5876812e-39
0.60397488 0.28115883 0.65536672 2.7720738e-39
0.60735154 0.28019762 0.65518844 4.9840333e-39
0.61074114 0.2809211 0.65501428 1.2725889e-38
0.61294776 0.28053027 0.65497571 1.4384319e-38
0.61619449 0.28033262 0.65501237 6.0896522e-39
0.61942136 0.2809709 0.65509063 8.3019703e-39
0.62310344 0.28029242 0.65508741 1.1527354e-38
0.62595183 0.28055638 0.6552164 1.4015897e-38
0.62803066 0.28094149 0.65539169 1.3370533e-38
0.63171196 0.28023767 0.65544778 1.2633335e-38
0.63446468 0.28044793 0.65573335 6.5502632e-39
0.6374501 0.28095692 0.65620226 2.5876798e-39
0.64050496 0.28062719 0.65660465 2.5873211e-39
0.64259303 0.27926981 0.6568231 2.4951226e-39
0.59317881 0.28436455 0.65466911 2.4029242e-39
0.59583831 0.28293043 0.65487105 2.5873196e-39
0.59865773 0.28342718 0.65533048 2.5876798e-39
0.60174859 0.28404263 0.65546799 2.9561036e-39
0.60395497 0.2836743 0.65539116 3.4170803e-39
0.60733241 0.28356427 0.65521193 7.8409964e-39
0.61066139 0.28342456 0.65511131 9.2232008e-39
0.61389703 0.28323498 0.65514731 1.3554924e-38
0.61650509 0.2841762 0.65524691 9.5941034e-39
0.61929035 0.28346992 0.65524769 1.3186144e-38
0.62255615 0.2832734 0.65530026 6.8272102e-39
0.62571174 0.28387809 0.65550125 8.9469754e-39
0.62791651 0.28346515 0.65552664 1.3094309e-38
0.63118672 0.28325087 0.65562582 1.0697598e-38
0.63422602 0.283793 0.65601236 3.4170733e-39
0.63689226 0.28396931 0.65641254 2.5873196e-39
0.64031512 0.28227812 0.65682417 2.4951226e-39
0.59000444 0.28683662 0.65424562 2.2178071e-39
0.59214705 0.28684729 0.65508175 2.4029242e-39
0.59539592 0.2860744 0.65542328 2.5873196e-39
0.59861207 0.28675818 0.65538752 2.6798796e-39
0.60184669 0.28660649 0.65534675 4.7992819e-39
0.60395592 0.28619891 0.65538996 1.1251129e-38
0.60728389 0.28691763 0.65527123 1.3186146e-38
0.6105811 0.28592709 0.65520906 1.1066382e-38
0.61381721 0.28659242 0.65524381 9.315395e-39
0.61696643 0.28636599 0.65540111 1.3831508e-38
0.61915952 0.28596777 0.65540463 1.4107733e-38
0.62235296 0.28660023 0.65554261 9.0391696e-39
0.62560993 0.28640145 0.65562207 8.4860015e-39
0.62849575 0.28640452 0.65572166 7.2878268e-39
0.63134485 0.28638628 0.65587878 4.8914747e-39
0.63465285 0.28696537 0.6563918 2.5873196e-39
0.63804513 0.28527588 0.65682524 2.4951226e-39
0.58764958 0.29042935 0.65457177 2.2178071e-39
0.58938217 0.28987789 0.65503186 2.4025627e-39
0.59250319 0.28906009 0.65551692 2.5873225e-39
0.59539086 0.28941509 0.6554296 2.7720752e-39
0.59844971 0.28984287 0.65514803 3.1408536e-39
0.60194761 0.2891725 0.65522218 8.8547784e-39
0.60405946 0.28961158 0.65526259 1.3463087e-38
0.60694361 0.28994361 0.65524727 1.1066741e-38
0.61059976 0.28931907 0.65518647 1.3923702e-38
0.61370176 0.28993291 0.65538359 8.1175791e-39
0.61687499 0.28887561 0.65551114 8.3938044e-39
0.61898726 0.28929761 0.65561122 1.1527354e-38
0.62186164 0.28959849 0.6556893 1.3554924e-38
0.62550747 0.28892356 0.6557436 1.2080162e-38
0.62859297 0.28950584 0.65604615 5.075866e-39
0.63175881 0.2901201 0.65626961 2.4954828e-39
0.63475937 0.28893617 0.65670598 2.4951226e-39
0.58638299 0.29259062 0.65485257 2.2178071e-39
0.58889222 0.29297429 0.65564942 2.5876826e-39
0.59257764 0.29242972 0.65542388 2.7720752e-39
0.59567344 0.2928896 0.6550768 3.140855e-39
0.59891486 0.29192457 0.6550113 7.840995e-39
0.60136819 0.29272148 0.65505761 1.0421374e-38
0.60412216 0.29300657 0.65518546 1.1711743e-38
0.60770613 0.29236582 0.65519494 9.2235595e-39
0.61047709 0.29264715 0.65533561 1.3554923e-38
0.61319137 0.29289767 0.65556151 1.0974183e-38
0.61671025 0.29220131 0.65570939 7.103437e-39
0.61955422 0.29306731 0.65581155 8.0250261e-39
0.62246865 0.29197094 0.65584397 1.032918e-38
0.6251452 0.29218519 0.65617335 7.5644081e-39
0.62830913 0.29281008 0.65638113 2.9564623e-39
0.63143528 0.29255629 0.65664935 2.4951212e-39
0.63349217 0.29122412 0.65687037 2.4951212e-39
0.58169603 0.2958433 0.65419531 2.4943953e-39
0.58381796 0.29558885 0.65502191 2.5865896e-39
0.58615685 0.29543591 0.65558118 2.6795153e-39
0.58902442 0.29553092 0.65548265 2.7720752e-39
0.5923996 0.29549271 0.65520632 3.3248861e-39
0.59588557 0.2954976 0.65481198 4.9840347e-39
0.5986473 0.29552189 0.65490252 1.1435159e-38
0.60137266 0.29552367 0.65505213 1.3370891e-38
0.6041593 0.29554874 0.65513968 7.9328305e-39
0.60722965 0.29532945 0.65533733 6.0896508e-39
0.61020386 0.2959044 0.65566826 1.2541138e-38
0.61373144 0.29522824 0.65578747 1.0052596e-38
0.61660331 0.29555142 0.65583819 1.2817725e-38
0.61936194 0.295818 0.65604186 1.0882348e-38
0.62277317 0.29506323 0.65635854 3.7854943e-39
0.6254909 0.29587126 0.65664202 2.8642681e-39
0.62807047 0.29527476 0.65666258 2.5876784e-39
0.63116449 0.29415447 0.6569671 2.4951212e-39
0.63572288 0.29685348 0.65689641 4.431228e-39
0.64093602 0.29638571 0.65610605 8.7625813e-39
0.64354575 0.29527617 0.65572524 7.2878226e-39
0.58055782 0.29822829 0.6547696 2.2178e-39
0.58350348 0.29838112 0.65586483 2.6795153e-39
0.58652073 0.29902366 0.65600181 2.7720766e-39
0.5888738 0.29795262 0.65567279 2.8642709e-39
0.59226829 0.29876488 0.65537119 6.550989e-39
0.59571505 0.29792559 0.65502483 1.1435518e-38
0.59871471 0.29853648 0.65525973 1.1988328e-38
0.60174066 0.29915658 0.65547776 1.2633333e-38
0.60459137 0.2983776 0.6554901 1.3463087e-38
0.60743296 0.29836047 0.65599227 7.5644095e-39
0.61004579 0.29836726 0.65586054 1.014515e-38
0.61324441 0.29820067 0.65593702 1.3278697e-38
0.61633104 0.29882416 0.65616596 1.2725525e-38
0.61933607 0.2985546 0.6565122 8.7622226e-39
0.62238348 0.29829928 0.65682256 2.6798768e-39
0.62565112 0.29813549 0.65689099 2.6798782e-39
0.63482082 0.29929665 0.65663433 4.4312252e-39
0.63833815 0.29749018 0.65648514 1.0236981e-38
0.63965213 0.29980177 0.65495998 6.9194072e-39
0.64233547 0.29873413 0.65448767 5.2606174e-39
0.57797146 0.3017258 0.65526283 2.3096341e-39
0.58032954 0.30096003 0.65594554 2.6795111e-39
0.58324552 0.30156422 0.65619361 2.6798782e-39
0.58636957 0.30143809 0.65619326 2.8642709e-39
0.58979833 0.30145112 0.65583128 6.550989e-39
0.5932377 0.30146003 0.65547717 9.2235623e-39
0.59535086 0.30109501 0.65547955 1.2264554e-38
0.59836257 0.30171958 0.65569699 1.4107733e-38
0.60150337 0.30156314 0.65577084 1.106638e-38
0.60463578 0.30139416 0.65587592 1.2264912e-38
0.60765153 0.30200607 0.6561408 1.3739311e-38
0.61085892 0.30101335 0.65619195 6.2740406e-39
0.61393243 0.3016414 0.6564225 8.7625855e-39
0.61658472 0.3018758 0.65673995 5.9052595e-39
0.6200906 0.30033779 0.65692532 2.5873211e-39
0.62892473 0.3022517 0.65697008 2.9564665e-39
0.63139635 0.3019866 0.65669501 3.9702541e-39
0.63440353 0.30195773 0.65580487 1.0421737e-38
0.6370039 0.30087429 0.65540415 8.6707514e-39
0.57528615 0.3051545 0.6553669 1.940853e-39
0.57715011 0.3043375 0.65605557 2.6795111e-39
0.58006608 0.3041299 0.65628296 2.6798782e-39
0.58306873 0.30478472 0.6564188 2.6798782e-39
0.58621854 0.30385104 0.65638459 3.0486607e-39
0.58958441 0.30467269 0.65610063 8.7625883e-39
0.59299874 0.30384603 0.65577644 1.3739312e-38
0.59565687 0.30468026 0.65597993 1.0881991e-38
0.59812135 0.30411544 0.65599656 8.7625855e-39
0.60136139 0.30401352 0.65594608 1.346273e-38
0.60427177 0.3045857 0.65632296 1.2264188e-38
0.60719526 0.30516148 0.65669805 1.4107732e-38
0.6104598 0.30420619 0.65667683 1.1250769e-38
0.61366528 0.30405784 0.65674531 3.6933001e-39
0.62894809 0.30483359 0.65694261 3.6018331e-39
0.63146949 0.30459666 0.65660918 5.905991e-39
0.63523936 0.30406064 0.65482759 7.1959927e-39
0.63790327 0.30300677 0.65435642 5.5372029e-39
0.57261807 0.30838972 0.6552875 2.0334102e-39
0.57459098 0.30772668 0.65591371 2.1256086e-39
0.57794523 0.30692551 0.65635639 2.6798782e-39
0.57998037 0.30738646 0.65639275 2.6798782e-39
0.58270699 0.30772877 0.65643865 2.8642667e-39
0.58617646 0.30714607 0.65643787 9.868566e-39
0.58907658 0.30756229 0.65629971 1.2449305e-38
0.59271121 0.30703968 0.65613681 1.0236986e-38
0.59487045 0.30754352 0.65607929 1.3002116e-38
0.59817111 0.30748767 0.65593487 9.7763717e-39
0.60200679 0.30740613 0.65647042 6.3658677e-39
0.60488188 0.307127 0.65689224 1.1619189e-38
0.60915864 0.30639422 0.65694016 1.4384678e-38
0.6290769 0.30746466 0.65679085 5.8137954e-39
0.63145113 0.30716506 0.65663075 1.0975644e-38
0.57185757 0.31074712 0.65494913 2.0334116e-39
0.57462287 0.31084237 0.65622586 2.6798782e-39
0.57799292 0.31024387 0.65629506 2.6798782e-39
0.5800277 0.31070989 0.65633214 2.6795181e-39
0.58309019 0.31058297 0.65639156 8.3019703e-39
0.58628643 0.31051722 0.65629864 8.8547812e-39
0.58953142 0.31046525 0.65616739 1.2357109e-38
0.5928061 0.31042096 0.6560179 1.290992e-38
0.59501892 0.31095716 0.65589392 1.272553e-38
0.59845656 0.31032577 0.65602058 1.2909192e-38
0.60068244 0.3103936 0.65678442 1.2356377e-38
0.6266939 0.31032127 0.65697181 5.53757e-39
0.62905872 0.31002784 0.65681237 1.0238443e-38
0.63143283 0.30973327 0.65665221 1.5399571e-38
0.57173455 0.31396383 0.65510935 2.1256072e-39
0.57499516 0.31285492 0.65618628 2.6798782e-39
0.57735664 0.31367624 0.65623146 2.7717123e-39
0.5800401 0.31401584 0.65631616 9.315395e-39
0.58352929 0.31346843 0.65627337 1.3278699e-38
0.58642077 0.31390217 0.65612841 6.9194072e-39
0.59002668 0.31339195 0.65598422 7.6566065e-39
0.5929445 0.31382513 0.65584445 1.2449304e-38
0.59597588 0.31365699 0.65602267 1.3554917e-38
0.59809887 0.31293893 0.65646392 9.3146677e-39
0.62668175 0.31202662 0.65698612 8.0261191e-39
0.62898409 0.31256419 0.65690023 1.0697961e-38
0.57173216 0.31642297 0.65511245 2.0330487e-39
0.57402539 0.31592688 0.65611464 2.6795181e-39
0.57703257 0.31662294 0.65620726 3.140492e-39
0.58007729 0.31650996 0.6562686 8.9469768e-39
0.58329052 0.31647563 0.65613657 1.3739673e-38
0.58653736 0.31645 0.65598071 9.3153964e-39
0.58978468 0.31641489 0.65584826 8.9469754e-39
0.59296989 0.31717318 0.65581274 6.4580661e-39
0.59576303 0.31605625 0.65628785 1.1711016e-38
0.59858811 0.31662035 0.65673679 1.4199926e-38
0.60132545 0.31695253 0.65687114 1.2264554e-38
0.60488576 0.31722188 0.65688759 5.1684203e-39
0.60704243 0.31772643 0.65688473 2.5873196e-39
0.57203132 0.31904301 0.65472281 2.1252471e-39
0.57422256 0.31931597 0.65585935 2.4025627e-39
0.57670921 0.31956801 0.65618211 2.6795181e-39
0.58016884 0.319033 0.65615129 4.5230579e-39
0.58306432 0.31948829 0.65598339 8.9469754e-39
0.58664924 0.31899643 0.65583909 1.4200289e-38
0.58987093 0.31978625 0.65573961 1.3094309e-38
0.59288317 0.31963003 0.65592134 4.2461109e-39
0.59578931 0.31941134 0.65625536 6.3658747e-39
0.59876364 0.32005796 0.65651923 8.6703885e-39
0.60221452 0.31944641 0.6566546 7.3803798e-39
0.60508239 0.31984451 0.65664649 2.9564623e-39
0.60706526 0.31942296 0.65685683 2.5873196e-39
0.57287765 0.32165879 0.65495008 2.4025641e-39
0.57417333 0.32304922 0.65503883 2.3103656e-39
0.57766485 0.32207248 0.65583491 2.6795139e-39
0.5806123 0.32256931 0.65558326 3.2326849e-39
0.58407706 0.32202986 0.65557593 6.181845e-39
0.58694267 0.32246912 0.65546727 1.0329539e-38
0.58965123 0.32281992 0.65557504 1.3370531e-38
0.5929991 0.32219139 0.65577608 1.0329178e-38
0.59594548 0.3228339 0.65606076 1.1250766e-38
0.59895074 0.32266593 0.65628731 6.735016e-39
0.60102201 0.32230482 0.65636516 4.2464724e-39
0.60384202 0.32268611 0.65641111 2.7717123e-39
0.60709196 0.32196414 0.65682423 2.5873182e-39
0.57423413 0.3253749 0.65451741 2.3103656e-39
0.57760149 0.32498524 0.65503234 2.5876812e-39
0.58040136 0.32623515 0.65497082 2.5876812e-39
0.58298343 0.32488471 0.65520239 2.5876826e-39
0.58610189 0.32564268 0.6552099 3.3245189e-39
0.59024 0.32514897 0.65571553 1.0052594e-38
0.59302139 0.32553849 0.65574813 1.3831508e-38
0.59510404 0.32603425 0.65578765 1.1250769e-38
0.59845656 0.32539809 0.6560207 5.3524515e-39
0.60123694 0.32577154 0.65609974 2.6798768e-39
0.60456109 0.32510123 0.65640742 2.5873182e-39
0.60707307 0.32532483 0.6568473 2.5873182e-39
0.57544351 0.32737291 0.65427828 2.0330515e-39
0.57728451 0.32858816 0.65455532 2.3103656e-39
0.57997745 0.32896203 0.65463024 2.5876812e-39
0.5832901 0.32836011 0.65481114 2.5873211e-39
0.58600438 0.32890871 0.65533346 2.495124e-39
0.58984637 0.3280912 0.65577042 3.7858558e-39
0.59300512 0.32886544 0.65576851 5.8134268e-39
0.59514827 0.32856333 0.65573251 7.0116029e-39
0.59817159 0.32841879 0.65593415 3.0482964e-39
0.6012134 0.32911572 0.65612888 2.6795181e-39
0.60422015 0.32810789 0.65638632 2.5873182e-39
0.60704255 0.32867932 0.65688461 2.5873182e-39
0.61359322 0.32943141 0.65683234 6.5509947e-39
0.61680686 0.32764226 0.65691209 1.3371997e-38
0.61829805 0.32895654 0.65643775 1.7980316e-38
0.58077747 0.3313967 0.65448827 2.8639051e-39
0.58406031 0.33178392 0.65515554 2.495124e-39
0.58677679 0.33150947 0.65567744 2.495124e-39
0.58984864 0.33141953 0.6557678 2.6798782e-39
0.59310675 0.33142143 0.6556412 3.0482992e-39
0.59510219 0.33104473 0.65578997 3.601103e-39
0.59809589 0.33172745 0.65602815 2.5876826e-39
0.60119098 0.33162123 0.65615648 2.6795181e-39
0.60418981 0.33145583 0.65642357 2.5873182e-39
0.60714334 0.33125955 0.65676147 2.6795181e-39
0.61045432 0.33124131 0.65668374 4.4308665e-39
0.61381507 0.33123982 0.65656435 1.3556387e-38
0.61600679 0.33007681 0.65655619 1.6413717e-38
0.58177984 0.33394617 0.65408796 2.2181672e-39
0.58353877 0.33429271 0.65449375 2.2181672e-39
0.58632588 0.33423495 0.65536672 2.21817e-39
0.58889151 0.33453444 0.65565044 2.6798796e-39
0.59213662 0.33453918 0.65553617 2.6795167e-39
0.59499764 0.33432946 0.65592051 2.5876826e-39
0.5977028 0.33468768 0.65607595 2.5876826e-39
0.60116863 0.33412653 0.65618414 2.6795181e-39
0.60389352 0.334483 0.65634781 2.5873196e-39
0.60742754 0.33393732 0.65641439 2.8642681e-39
0.61046737 0.33444658 0.65622824 1.0145526e-38
0.61410266 0.33308363 0.65621686 1.7058724e-38
0.58673006 0.33677372 0.65441227 2.12561e-39
0.58856541 0.3379918 0.65473807 2.1256086e-39
0.59241706 0.3373675 0.65562481 2.5873182e-39
0.59561038 0.33751774 0.65603805 2.5876826e-39
0.5991292 0.33699989 0.65606618 2.5876826e-39
0.60127503 0.33754024 0.65605271 2.5873196e-39
0.60441339 0.33746111 0.65614933 2.7720738e-39
0.60773778 0.33747467 0.65603542 8.8551553e-39
0.60995227 0.33719504 0.65597433 1.5399571e-38
0.58986235 0.34005919 0.65442502 2.12561e-39
0.59242779 0.34053481 0.65517038 2.4022039e-39
0.5953151 0.34034938 0.65552419 2.5876826e-39
0.59853685 0.34033918 0.65548074 2.4954842e-39
0.60144711 0.34099051 0.65584016 2.4951226e-39
0.60490555 0.34042811 0.65598494 7.1960025e-39
0.59303784 0.34337536 0.65440446 2.3100055e-39
0.59588093 0.34316912 0.65481782 4.0620742e-39
0.59874994 0.34380752 0.65521586 3.1401277e-39
0.60149044 0.34353256 0.65578669 2.9557392e-39
0.60351056 0.34233016 0.65593791 7.0119714e-39
0.595384 0.34571868 0.6541152 1.9408516e-39
0.59842724 0.34645998 0.65429276 2.3103642e-39
0.60103655 0.34611663 0.65502596 2.3103642e-39
0.65615237 0.23639069 0.65712982 2.7731486e-39
0.65858972 0.23680604 0.65701246 2.7727899e-39
0.65302372 0.23878449 0.65716571 1.0890232e-38
0.65575141 0.23888004 0.65758187 1.6046719e-38
0.65826243 0.23844942 0.6573801 2.6802398e-39
0.66070741 0.23886935 0.65726304 2.6802398e-39
0.66316181 0.23929091 0.65714556 2.6802398e-39
0.64920115 0.24222021 0.65713197 3.5257132e-39
0.65243232 0.24185015 0.65739858 4.0778108e-39
0.65572006 0.24149299 0.65761721 6.4698721e-39
0.65844631 0.24129753 0.65804875 1.0609004e-38
0.66163915 0.24125604 0.65797114 1.2266373e-38
0.6650908 0.24217683 0.65762198 9.8696632e-39
0.64689845 0.2444385 0.65713489 3.433519e-39
0.64911962 0.24480301 0.65722495 3.5249999e-39
0.65259409 0.24452384 0.65721524 3.5249999e-39
0.65574145 0.24412382 0.65759313 3.7990785e-39
0.65846449 0.24422337 0.65802842 6.5592119e-39
0.66133696 0.24524967 0.65830833 9.6859768e-39
0.6643486 0.24456494 0.65844679 1.6321883e-38
0.66736913 0.24518801 0.6577177 2.7724382e-39
0.64460385 0.24664925 0.65713787 3.4328043e-39
0.65374684 0.24733874 0.65722144 2.7759975e-39
0.6557821 0.24763617 0.65754724 2.5891077e-39
0.65797365 0.24798752 0.65770447 2.6805901e-39
0.66114867 0.24759446 0.65808201 3.3248777e-39
0.66415179 0.24713588 0.65866542 1.1805032e-38
0.66649532 0.24753174 0.65868515 8.7633184e-39
0.67004752 0.24746028 0.6573807 3.5096389e-39
0.6538049 0.25085318 0.65715569 2.5873196e-39
0.65590841 0.25030482 0.65740484 2.6795181e-39
0.65826786 0.25071973 0.65737402 2.6795181e-39
0.66131848 0.25028792 0.65789223 2.4954828e-39
0.66457796 0.25080395 0.65819204 3.2326849e-39
0.66676944 0.25027099 0.65838164 4.6148892e-39
0.67001224 0.25010076 0.65741956 4.984399e-39
0.65610367 0.25212437 0.65718472 2.6795181e-39
0.6584928 0.25342971 0.6571213 2.495124e-39
0.66141844 0.25361452 0.65734333 2.4951254e-39
0.66529059 0.2536976 0.65740007 2.5873211e-39
0.66748583 0.25316918 0.65758848 2.5876798e-39
0.58867317 0.27214995 0.65944624 9.2235595e-39
0.65386891 0.27271545 0.65708327 3.3252462e-39
0.64924026 0.27531236 0.65708739 2.5876812e-39
0.65245211 0.27500987 0.65737593 4.1542782e-39
0.6559391 0.27480942 0.65737021 1.1436619e-38
0.64466691 0.27790028 0.65706551 2.4951226e-39
0.64684862 0.27743658 0.65719199 2.5876812e-39
0.64957762 0.27819046 0.657579 3.7858572e-39
0.6520806 0.2774784 0.6577971 6.3666006e-39
0.65538132 0.27721119 0.65799922 1.4385785e-38
0.64370769 0.28055897 0.6572926 2.4954842e-39
0.64646447 0.28075451 0.6576314 2.6798768e-39
0.64917254 0.2809259 0.65804034 5.5372043e-39
0.6526863 0.28009877 0.6584214 1.208126e-38
0.65468442 0.28042576 0.65878487 1.7334945e-38
0.64103311 0.28406125 0.65730906 2.4951226e-39
0.64338291 0.2833133 0.65766573 2.6795153e-39
0.64599198 0.28403148 0.65817189 4.1542782e-39
0.64952916 0.28322962 0.6585086 1.0053686e-38
0.65232313 0.28256631 0.65883237 1.7058359e-38
0.63783658 0.28691357 0.65706736 2.4951226e-39
0.64073682 0.28653052 0.65765119 2.7717095e-39
0.6437633 0.28706139 0.65810299 3.693663e-39
0.64591122 0.28660077 0.65826422 6.5509947e-39
0.64878613 0.28598419 0.65848023 1.4846754e-38
0.63555491 0.28988808 0.65709215 2.4951212e-39
0.63748622 0.28935167 0.65747392 2.4951212e-39
0.64027143 0.28958502 0.65775132 3.1404906e-39
0.64384663 0.2896955 0.65800726 8.3023389e-39
0.64595824 0.28835565 0.65821058 1.2634792e-38
0.6345033 0.2924706 0.65744263 2.4951212e-39
0.63745975 0.29279038 0.65750462 3.6940259e-39
0.64115804 0.2921024 0.65760273 5.5372057e-39
0.64391315 0.2914567 0.65793091 1.5399925e-38
0.63224369 0.29543117 0.6574555 2.4954842e-39
0.63528073 0.2949357 0.65741152 3.4174405e-39
0.63782573 0.29553795 0.65707988 2.5876798e-39
0.63984936 0.29418117 0.65736288 6.0900165e-39
0.62548363 0.29976913 0.65708929 2.5873196e-39
0.62871099 0.29787019 0.65722185 2.4951212e-39
0.63078368 0.29827654 0.65741384 2.6798754e-39
0.63332868 0.29803228 0.65706146 3.6018303e-39
