# .PCD v0.7 - Point Cloud Data file format
VERSION 0.7
FIELDS x y z rgb
SIZE 4 4 4 4
TYPE F F F F
COUNT 1 1 1 1
WIDTH 966
HEIGHT 1
VIEWPOINT 0 0 0 1 0 0 0
POINTS 966
DATA ascii
0.43466151 -0.054319367 0.63562036 4.2348543e-39
0.43459731 -0.049862579 0.63573438 4.6983646e-39
0.45496339 -0.073661491 0.63761806 7.0983404e-39
0.44397461 -0.069834895 0.63648945 5.251174e-39
0.44890013 -0.071622282 0.63798213 6.1745765e-39
0.44035619 -0.066519029 0.63706851 4.5118027e-39
0.44209504 -0.068159737 0.63689613 4.9742242e-39
0.43891415 -0.064379781 0.63768393 4.7898315e-39
0.4368605 -0.0610242 0.63747454 5.0664226e-39
0.43541783 -0.057235375 0.63715339 5.3433696e-39
0.43481478 -0.054903522 0.63821888 5.8987112e-39
0.43440098 -0.051960867 0.63751674 5.8990742e-39
0.43491131 -0.048264414 0.63804829 5.5328252e-39
0.43587065 -0.046119541 0.63778615 5.440631e-39
0.43661141 -0.043934844 0.63791299 6.1821743e-39
0.4382025 -0.042541794 0.6379782 5.9966998e-39
0.43991685 -0.041162573 0.63783598 5.9037811e-39
0.44163686 -0.039778769 0.63769335 5.7190255e-39
0.44375229 -0.03844529 0.63687491 5.3484339e-39
0.4460049 -0.037052441 0.63725936 5.5335511e-39
0.44823831 -0.035651173 0.63769388 5.9041413e-39
0.45036137 -0.034296282 0.63690799 5.5339098e-39
0.45255503 -0.03287774 0.63743615 5.6261096e-39
0.45467567 -0.031445086 0.63810343 5.9970614e-39
0.45661211 -0.030046873 0.63767493 5.9041427e-39
0.45855373 -0.028642539 0.63724947 5.7186668e-39
0.46050334 -0.027232397 0.63682216 5.5335497e-39
0.46367848 -0.024823191 0.63720137 5.6257481e-39
0.46636218 -0.02291126 0.63700563 5.4409925e-39
0.46887755 -0.021480665 0.63710809 5.8119442e-39
0.47129452 -0.020034023 0.6373865 5.7190255e-39
0.47410661 -0.018615995 0.63704354 6.0892584e-39
0.4763723 -0.017142635 0.6376 6.5505967e-39
0.47904912 -0.017191892 0.63891602 7.3818049e-39
0.44364578 -0.069547273 0.63990724 6.6362777e-39
0.44061983 -0.066363223 0.63946289 5.9916271e-39
0.44180697 -0.067885138 0.64024651 6.3600509e-39
0.43887106 -0.063883759 0.64108568 6.5451624e-39
0.43725234 -0.061641924 0.63964421 6.2678553e-39
0.43571332 -0.059221417 0.64091945 6.9146708e-39
0.43466109 -0.05542846 0.6413458 7.1908962e-39
0.43501908 -0.056970604 0.64071572 6.9139464e-39
0.43431869 -0.052505571 0.64052188 6.9161184e-39
0.43447599 -0.050045978 0.64072067 7.7473266e-39
0.43569717 -0.048143309 0.64094758 6.4584011e-39
0.43676373 -0.046018921 0.64050072 6.1821757e-39
0.43739891 -0.04390014 0.63938725 6.1821757e-39
0.4387171 -0.0429084 0.64088029 6.1821757e-39
0.44004869 -0.041031897 0.64045656 6.1821757e-39
0.44184315 -0.039661985 0.64018375 6.0896185e-39
0.44397384 -0.038333375 0.63934082 6.0896185e-39
0.44529578 -0.037559595 0.64132309 6.1821757e-39
0.44852901 -0.03555426 0.64003545 6.1821757e-39
0.45049238 -0.034181174 0.63952351 6.0892584e-39
0.45260024 -0.032691192 0.64160544 6.1821757e-39
0.45467216 -0.031320207 0.6409359 6.0899787e-39
0.45756975 -0.029224033 0.64030969 6.0896185e-39
0.46048325 -0.027116336 0.63967997 6.0896185e-39
0.46188319 -0.024145449 0.64165217 6.8271808e-39
0.46323237 -0.025173381 0.64075583 6.0899787e-39
0.46666855 -0.022787258 0.64072359 6.1821757e-39
0.46883112 -0.02137683 0.63999569 5.9966998e-39
0.47367305 -0.018485513 0.64054817 5.99706e-39
0.44383234 -0.069370829 0.64242077 6.9143093e-39
0.44422138 -0.069238253 0.64457643 7.5604018e-39
0.44809848 -0.071120568 0.64359397 6.8235598e-39
0.44029862 -0.06608703 0.64286077 7.1908962e-39
0.44125003 -0.067555353 0.64404368 7.7444315e-39
0.43748689 -0.06212737 0.64349866 7.4678446e-39
0.4356218 -0.059010092 0.64392203 7.4682062e-39
0.43423337 -0.056634508 0.64493752 8.3901625e-39
0.43413708 -0.052296884 0.6436879 7.4707397e-39
0.43488085 -0.050867662 0.64380217 6.6427909e-39
0.43601474 -0.048983019 0.6437071 6.1821757e-39
0.43743527 -0.046621922 0.64358807 6.1821757e-39
0.43828976 -0.045201957 0.64351702 6.1821757e-39
0.43939838 -0.043299686 0.64347798 6.1821757e-39
0.4407326 -0.040908936 0.64352345 6.1821757e-39
0.44232249 -0.03951234 0.64360559 6.1821757e-39
0.44563639 -0.03746647 0.64356589 6.1821757e-39
0.44890362 -0.035401668 0.64363319 6.1821757e-39
0.45080885 -0.034024999 0.64322126 6.1821757e-39
0.48242909 -0.033927295 0.64236975 7.56475e-39
0.45285892 -0.032596085 0.64398396 6.1821757e-39
0.45479876 -0.031211656 0.64353728 6.1821757e-39
0.45813465 -0.028861349 0.64358336 6.1821757e-39
0.46065176 -0.027021557 0.64221215 6.1821757e-39
0.46093488 -0.026939791 0.6445446 6.1821757e-39
0.46385214 -0.024823917 0.64393961 6.1818156e-39
0.4668777 -0.02270557 0.64318085 6.1821757e-39
0.46893108 -0.02128743 0.64263219 6.1821757e-39
0.47107446 -0.019822765 0.6433441 6.0896185e-39
0.47407585 -0.018429272 0.64269167 7.3818049e-39
0.44070494 -0.067229606 0.64779979 8.0210198e-39
0.43936911 -0.065052569 0.64588314 7.8369887e-39
0.43750077 -0.061930288 0.64630139 6.2693028e-39
0.43564007 -0.058820695 0.64671808 7.7444329e-39
0.43396538 -0.055756465 0.64681983 8.2979668e-39
0.4343456 -0.052890431 0.64615571 7.6562156e-39
0.43596628 -0.050059788 0.64614952 6.1821757e-39
0.43712443 -0.047962748 0.64554447 6.1821757e-39
0.43834096 -0.045786854 0.64625382 6.1821757e-39
0.4398925 -0.04292316 0.64638758 6.1821757e-39
0.44211528 -0.040075563 0.64678264 6.1821757e-39
0.44527787 -0.03801956 0.64698809 6.1821757e-39
0.44724277 -0.036667187 0.64645207 6.1821757e-39
0.44934487 -0.035258818 0.64709854 6.1821757e-39
0.4512611 -0.033887189 0.64666975 6.1821757e-39
0.45415938 -0.031819299 0.64600956 6.1821757e-39
0.45723584 -0.02969908 0.64647245 6.1821757e-39
0.45934075 -0.028265297 0.6471737 6.1821757e-39
0.46127391 -0.026864525 0.64677584 6.1821757e-39
0.46407264 -0.024739796 0.64636648 6.1821757e-39
0.46695113 -0.022610851 0.64584839 6.1821757e-39
0.46905541 -0.021151714 0.64660513 6.1821757e-39
0.47153735 -0.019722909 0.64676869 6.1821757e-39
0.47433883 -0.018315464 0.64643657 6.1821757e-39
0.43079206 -0.07318408 0.65075994 6.5458883e-39
0.43891299 -0.064753085 0.64948118 7.0990635e-39
0.43667215 -0.060932428 0.64914632 6.5458897e-39
0.43472761 -0.057817258 0.64971477 7.3756504e-39
0.4338851 -0.055282135 0.65024477 8.6663892e-39
0.43381125 -0.053348649 0.64990526 8.6663892e-39
0.43966681 -0.043548055 0.64818382 6.1821757e-39
0.46878612 -0.044992786 0.64973897 6.6427909e-39
0.44308689 -0.039751772 0.64932495 6.1821757e-39
0.44588679 -0.037893534 0.65015066 6.1821757e-39
0.44780189 -0.036537364 0.64970219 6.1821757e-39
0.44970608 -0.035172991 0.64928365 6.1821757e-39
0.45161515 -0.033802599 0.64886844 6.1821757e-39
0.45466992 -0.031695034 0.64934111 6.1821757e-39
0.45772445 -0.029577456 0.64983934 6.1821757e-39
0.45965391 -0.028185207 0.64943743 6.1821757e-39
0.46150827 -0.026778169 0.6491698 6.1821757e-39
0.46334636 -0.025363401 0.64893901 6.1821757e-39
0.4664928 -0.022966316 0.64936471 6.1821757e-39
0.46959692 -0.021056324 0.64988512 6.1821757e-39
0.47237214 -0.019657681 0.64957726 6.1821757e-39
0.47557884 -0.01824259 0.64998496 6.735711e-39
0.47859311 -0.016846456 0.64934862 7.2892477e-39
0.49306357 -0.0076028313 0.64963031 1.0786889e-38
0.44024068 -0.066922307 0.65139687 7.1912591e-39
0.44136286 -0.068417609 0.65226698 7.2838149e-39
0.4377355 -0.063678041 0.65290707 6.4536941e-39
0.43652061 -0.061439455 0.65220946 6.730281e-39
0.43439567 -0.057564892 0.65309197 4.4253902e-39
0.43529052 -0.059197672 0.65154105 6.5458897e-39
0.4343825 -0.055372607 0.6531148 6.730281e-39
0.43423954 -0.052242815 0.6524303 8.5745551e-39
0.43419424 -0.049801424 0.6525088 7.3781839e-39
0.43448764 -0.047360763 0.65293241 7.5640213e-39
0.43573403 -0.045941077 0.65356743 6.2743699e-39
0.43871492 -0.043324895 0.65122259 6.1821757e-39
0.44006366 -0.041909263 0.6517002 6.1821757e-39
0.44196832 -0.04049908 0.65262544 6.1821757e-39
0.4440493 -0.039110675 0.65326297 6.1821757e-39
0.44611859 -0.037785891 0.65254247 6.1821757e-39
0.44816452 -0.036449995 0.6518749 6.1821757e-39
0.45113 -0.034352139 0.65245873 6.1821757e-39
0.45503107 -0.031553343 0.65290236 6.1821757e-39
0.45790464 -0.029479951 0.65231144 6.1821757e-39
0.45981199 -0.028088018 0.65194631 6.1821757e-39
0.46169198 -0.026686683 0.65163654 6.1821757e-39
0.46363983 -0.025232492 0.6526047 6.1821757e-39
0.46615696 -0.023331737 0.65266532 6.1821757e-39
0.47003788 -0.02100068 0.6519326 6.1821757e-39
0.4706893 -0.020965133 0.65363753 7.2892477e-39
0.47330564 -0.019601796 0.65221781 7.2892477e-39
0.47530216 -0.019642467 0.65316844 7.2892477e-39
0.47861615 -0.018281585 0.65205878 7.2892477e-39
0.4819698 -0.018347563 0.65365118 7.5654745e-39
0.44215494 -0.069627792 0.65647167 6.269663e-39
0.44041032 -0.06737721 0.65528142 6.0849116e-39
0.4372856 -0.063385218 0.65646005 6.8224766e-39
0.43871415 -0.065138586 0.65401238 6.2693028e-39
0.43641281 -0.061949968 0.65518206 6.730281e-39
0.43477055 -0.058176387 0.65523106 1.2907388e-39
0.434753 -0.055257652 0.6552614 4.5175859e-39
0.43455899 -0.052308042 0.65559638 8.1135756e-39
0.43422657 -0.049337447 0.65617025 6.7339005e-39
0.43478411 -0.047245473 0.65520757 7.4718271e-39
0.43592501 -0.045811392 0.65602106 6.1821757e-39
0.4370704 -0.044455264 0.65543985 6.2743699e-39
0.4384163 -0.043125071 0.65452266 6.1821757e-39
0.43994135 -0.041740701 0.65469325 6.1821757e-39
0.44201761 -0.040286869 0.65670431 6.9190177e-39
0.44509265 -0.038308594 0.65565938 6.3662054e-39
0.44825435 -0.036326297 0.65449625 6.1821757e-39
0.45146424 -0.034199841 0.6560483 6.1821757e-39
0.45429862 -0.03214521 0.65548933 6.1821757e-39
0.45617741 -0.030765545 0.65514928 6.1821757e-39
0.45808411 -0.02938281 0.65477443 6.1821757e-39
0.45996433 -0.027990639 0.65445364 6.1821757e-39
0.46189779 -0.026542719 0.65542901 6.3662068e-39
0.46384269 -0.025092874 0.65639627 6.6424322e-39
0.49682075 -0.024804395 0.65572387 6.735711e-39
0.46573812 -0.023686688 0.65608263 6.3662068e-39
0.46809113 -0.022319056 0.65504742 7.2892477e-39
0.47246835 -0.020987468 0.65491533 7.104132e-39
0.47730207 -0.019683208 0.65412074 7.2896079e-39
0.44770437 -0.072900295 0.65817314 7.3785441e-39
0.44194323 -0.069368623 0.6595878 5.3477067e-39
0.44506097 -0.071290664 0.65709186 6.7324502e-39
0.44018018 -0.067119665 0.65843898 5.5317378e-39
0.43704933 -0.063136861 0.65962946 6.6380854e-39
0.43841904 -0.064873219 0.65729153 6.5458897e-39
0.43551704 -0.060944937 0.65810776 4.5175859e-39
0.43508831 -0.058047678 0.65746021 1.1985432e-39
0.43478289 -0.055080827 0.65798551 4.7019771e-39
0.43445089 -0.052113462 0.65855652 8.2979696e-39
0.43421987 -0.049167663 0.65895391 8.2083047e-39
0.4355574 -0.046615142 0.65849966 6.9190163e-39
0.43744761 -0.044280045 0.65894973 7.0108532e-39
0.43852347 -0.042912178 0.65849495 8.1164734e-39
0.44010568 -0.041541383 0.65856397 8.5770901e-39
0.44201326 -0.040140856 0.65946972 9.1298995e-39
0.44511101 -0.038170837 0.65838718 7.287796e-39
0.44833282 -0.036134358 0.65849841 6.7346278e-39
0.45148683 -0.034073152 0.658759 6.1821757e-39
0.45436674 -0.032029241 0.65812421 6.0899815e-39
0.45624733 -0.030652989 0.65778077 6.0899815e-39
0.45817506 -0.029275876 0.65737116 6.0899815e-39
0.46011236 -0.027836444 0.65832376 6.3662068e-39
0.4629637 -0.025691785 0.65917879 8.1164734e-39
0.46667862 -0.022878259 0.65867186 8.4848944e-39
0.47675252 -0.019540817 0.65770566 7.5640227e-39
0.44171816 -0.069107816 0.66271079 5.0711198e-39
0.44456583 -0.070966788 0.66067278 6.640256e-39
0.43995288 -0.066863865 0.66157591 5.7161291e-39
0.43821186 -0.064627096 0.66040432 6.2693028e-39
0.43544188 -0.060734864 0.66099703 5.7161291e-39
0.43489116 -0.057821661 0.66056263 4.6097815e-39
0.43455517 -0.054857511 0.66113836 7.1916193e-39
0.43421972 -0.051898099 0.66171312 8.1146616e-39
0.43425652 -0.049005676 0.66165006 7.9317193e-39
0.43653485 -0.046021193 0.66142482 6.6427909e-39
0.43881348 -0.043532215 0.66075873 8.3005046e-39
0.4409005 -0.041437246 0.66134739 8.5770901e-39
0.44229531 -0.040037107 0.66174072 9.2217364e-39
0.44514596 -0.038036082 0.66107458 7.932085e-39
0.44831723 -0.03593101 0.66263241 7.8402481e-39
0.45145401 -0.033939965 0.66154861 5.8126785e-39
0.45398405 -0.031419169 0.66158092 5.8130372e-39
0.45634845 -0.030484736 0.66171062 4.6137864e-39
0.45826906 -0.029111553 0.66131234 4.8921684e-39
0.46023601 -0.027680453 0.66221082 4.4322748e-39
0.4629823 -0.025585881 0.66186798 7.009777e-39
0.46667317 -0.02277663 0.66139746 9.0377053e-39
0.4702493 -0.02063521 0.66249895 8.6692843e-39
0.48157883 -0.018091045 0.66103631 8.8551259e-39
0.47358096 -0.0081625599 0.66094196 4.7916448e-39
0.44583648 -0.072272137 0.66402048 6.8257318e-39
0.44885755 -0.073961206 0.66446304 7.471104e-39
0.44301707 -0.070416905 0.66599238 7.2841764e-39
0.44005454 -0.06730058 0.66550726 6.730281e-39
0.44153416 -0.068856955 0.66574949 6.8224766e-39
0.437648 -0.064309284 0.66410577 6.2693028e-39
0.43880379 -0.065794468 0.66488516 6.4536941e-39
0.43628559 -0.06223486 0.66459155 6.2693028e-39
0.43483606 -0.059248794 0.66431981 5.1629553e-39
0.43431076 -0.056078084 0.66430378 6.730281e-39
0.43391192 -0.053114824 0.66498452 7.745879e-39
0.46564049 -0.051426806 0.66317308 7.5654745e-39
0.43431178 -0.049570367 0.66430205 9.1295352e-39
0.43525696 -0.048118986 0.66542864 7.1952402e-39
0.43627545 -0.046035305 0.66506523 6.2740112e-39
0.43891773 -0.043395307 0.66332603 6.6427909e-39
0.44078237 -0.041271977 0.66428387 6.5505967e-39
0.44250339 -0.039923124 0.66412652 6.826822e-39
0.44553 -0.037881497 0.66453028 8.3005046e-39
0.44863892 -0.035840575 0.66482371 7.8398894e-39
0.45161566 -0.033832431 0.66400599 4.7056233e-39
0.45461091 -0.03175072 0.66453874 2.4943855e-39
0.45663655 -0.030339669 0.66531467 2.1234506e-39
0.4585467 -0.028969325 0.66493428 1.8515399e-39
0.4604646 -0.027593363 0.66455233 2.0373689e-39
0.46307677 -0.025488565 0.66442382 4.3375625e-39
0.4666979 -0.02267845 0.66406286 6.9193764e-39
0.47066885 -0.020579129 0.66453588 8.4848944e-39
0.47390246 -0.019192565 0.66485691 8.9455096e-39
0.49348032 -0.020211283 0.66588402 6.734625e-39
0.47715312 -0.017798726 0.66517973 7.1030474e-39
0.4490906 -0.073792264 0.66679287 7.2870729e-39
0.44462603 -0.07179039 0.66874319 7.654768e-39
0.4398126 -0.067042403 0.66863227 6.6380854e-39
0.44127488 -0.068591267 0.6688987 6.5458911e-39
0.43735421 -0.064047977 0.66733128 6.730281e-39
0.43835366 -0.065496996 0.66836637 6.4536941e-39
0.43563801 -0.061011463 0.66751033 5.8083247e-39
0.43432981 -0.058062226 0.66700512 5.2551509e-39
0.43404171 -0.05584503 0.66749495 8.0210198e-39
0.43366978 -0.052895334 0.66812736 7.8380789e-39
0.434439 -0.050146446 0.66681945 8.5763628e-39
0.43533465 -0.048688643 0.66802412 6.8268178e-39
0.43662247 -0.046146352 0.6676591 6.1821757e-39
0.43797708 -0.043898456 0.66628015 6.2743699e-39
0.43862304 -0.043120805 0.66791356 6.1821757e-39
0.44215536 -0.040454745 0.66743022 6.2743699e-39
0.44519383 -0.038425516 0.66780317 6.5505967e-39
0.44706082 -0.037089072 0.66742635 6.7346278e-39
0.41586906 -0.034142733 0.66729689 4.3281331e-39
0.44895965 -0.03575043 0.66700804 6.3658481e-39
0.45163521 -0.033930063 0.6671347 2.3175487e-39
0.45398626 -0.032284781 0.66825902 1.0289791e-39
0.45685816 -0.03024704 0.66765642 1.8479455e-39
0.45877737 -0.028880313 0.6672622 1.5760362e-39
0.46069241 -0.027506575 0.66688561 1.5781928e-39
0.46367493 -0.025145 0.66751117 3.2333827e-39
0.46667108 -0.022806289 0.66724449 5.9052329e-39
0.46809787 -0.021824464 0.66857266 6.2740112e-39
0.47251049 -0.019813439 0.66702902 7.0112119e-39
0.48174113 -0.019344255 0.66882366 7.5661962e-39
0.48363769 -0.019421309 0.66860038 7.6580316e-39
0.44962338 -0.073580638 0.66996986 7.1034061e-39
0.44274038 -0.070143595 0.66916561 6.7313656e-39
0.44582561 -0.071727931 0.67081153 7.4700166e-39
0.43286586 -0.068074189 0.67051017 6.0849116e-39
0.43704468 -0.063784704 0.67056674 5.6239334e-39
0.43816358 -0.065254539 0.67139357 6.1771072e-39
0.43494356 -0.060680985 0.67139894 5.8083247e-39
0.43618584 -0.06236776 0.6693027 6.2693028e-39
0.43453538 -0.058810875 0.67028141 3.4112383e-39
0.43411419 -0.055676334 0.67009133 7.467846e-39
0.4337807 -0.052739915 0.67065626 8.0224673e-39
0.43415928 -0.050649434 0.67001498 8.8525853e-39
0.43501073 -0.049188934 0.67128563 7.8395222e-39
0.43664217 -0.046470802 0.67034149 6.1821757e-39
0.43910599 -0.042752922 0.67071718 6.1821757e-39
0.44220728 -0.040246028 0.67140234 6.1821757e-39
0.44501835 -0.038261831 0.6707949 6.0899815e-39
0.44705582 -0.036952697 0.67013597 5.9977858e-39
0.44927922 -0.035594624 0.67053145 5.0761981e-39
0.45151025 -0.03423183 0.6709305 1.7607848e-39
0.45436597 -0.032208294 0.67033446 1.3912862e-39
0.45714808 -0.03016289 0.6698789 1.7553898e-39
0.46002185 -0.028056048 0.6706413 1.4824014e-39
0.46352616 -0.025515741 0.6704278 2.4965449e-39
0.46680528 -0.023180775 0.6706022 5.7208416e-39
0.46862435 -0.021777544 0.67042011 6.1821757e-39
0.47081852 -0.020403579 0.66966289 6.3662068e-39
0.47515917 -0.019076841 0.66959882 7.4740005e-39
0.47891033 -0.019229246 0.66915703 7.565836e-39
0.45369464 -0.075170487 0.67275649 8.3919729e-39
0.45037585 -0.073418498 0.67277336 7.1019572e-39
0.44295415 -0.069871001 0.67285639 6.9150338e-39
0.44702381 -0.071665555 0.67287749 6.8246458e-39
0.4399462 -0.067482978 0.67246425 6.822478e-39
0.43745914 -0.064289197 0.67392033 5.9005203e-39
0.43546516 -0.061309725 0.67322183 3.6878252e-39
0.43472448 -0.058117826 0.67356795 4.4253902e-39
0.4343673 -0.05545152 0.6737197 7.8366285e-39
0.43389183 -0.052585255 0.67317355 8.2064957e-39
0.43445817 -0.049729832 0.67356759 8.6685542e-39
0.43628666 -0.046999961 0.67319012 7.103046e-39
0.43754941 -0.044966072 0.67242211 6.1821757e-39
0.43914047 -0.042823516 0.67380613 6.1821757e-39
0.44245967 -0.040139258 0.67367494 6.1821757e-39
0.44517636 -0.038145542 0.67322391 6.1821757e-39
0.4474043 -0.036797754 0.67359465 5.9974271e-39
0.4496401 -0.035445217 0.67396855 4.8903705e-39
0.45174301 -0.034133781 0.67323375 2.030176e-39
0.45465636 -0.032121148 0.67254615 1.8461463e-39
0.45736068 -0.030070022 0.6722163 1.8461477e-39
0.45739698 -0.029956862 0.67482537 2.9499575e-39
0.46011427 -0.027897643 0.67449784 2.0298159e-39
0.46397576 -0.025157746 0.67371869 3.2301471e-39
0.46696436 -0.023095902 0.67301673 5.5364532e-39
0.46896851 -0.021713283 0.67254597 6.2740112e-39
0.47097427 -0.020323906 0.67208427 6.1821757e-39
0.4720912 -0.020286752 0.67433429 6.5509596e-39
0.43968943 -0.067222297 0.67557788 7.0068679e-39
0.43706214 -0.064008564 0.67726594 6.1771072e-39
0.43577597 -0.061351437 0.67628592 5.8083247e-39
0.43526846 -0.058212113 0.6762417 2.3048907e-39
0.43392763 -0.052418355 0.67580634 9.4968715e-39
0.43442297 -0.049767505 0.67676377 8.1150217e-39
0.43610996 -0.046811026 0.67617476 8.3008619e-39
0.43755871 -0.044812329 0.67509788 6.9190163e-39
0.43937391 -0.042709157 0.67610204 6.2743699e-39
0.44269276 -0.04024668 0.67641449 6.4584011e-39
0.4441151 -0.039302085 0.67763841 6.7349865e-39
0.44567484 -0.038008563 0.67642021 6.3662054e-39
0.44781947 -0.036652807 0.67692596 6.0896213e-39
0.44982219 -0.035338506 0.67634219 4.9818445e-39
0.45183432 -0.034018043 0.67575562 2.8584849e-39
0.45468712 -0.0319415 0.67649382 3.9622933e-39
0.45741028 -0.02984152 0.67745936 4.1459629e-39
0.46014428 -0.02778909 0.677104 2.12165e-39
0.46302181 -0.025740296 0.67654276 2.5837057e-39
0.46502191 -0.024374291 0.67605519 4.2442892e-39
0.46703094 -0.023002204 0.67556536 5.720843e-39
0.46910951 -0.021581458 0.67630041 6.3665656e-39
0.47393656 -0.020317033 0.67545849 6.5509596e-39
0.47516841 -0.020337246 0.67620885 6.5509596e-39
0.44871837 -0.072731227 0.67945439 6.2725594e-39
0.45228353 -0.074529208 0.67901701 7.3792685e-39
0.44174546 -0.06929592 0.6788609 6.0859962e-39
0.44510156 -0.071035646 0.67868841 6.086722e-39
0.43970966 -0.066918671 0.67954934 5.9927159e-39
0.43709099 -0.063815936 0.67988801 7.0068679e-39
0.43519241 -0.060154743 0.67904532 6.3618572e-39
0.43427694 -0.058550082 0.68057251 4.240999e-39
0.43353191 -0.055028405 0.67914963 8.3908827e-39
0.43393764 -0.051951379 0.67936057 8.3919673e-39
0.43475926 -0.050078921 0.67976785 7.2859869e-39
0.43519586 -0.048725098 0.67903954 8.0235519e-39
0.43601254 -0.046847343 0.67945743 8.9451495e-39
0.43736398 -0.044550251 0.67943323 8.9455096e-39
0.43899348 -0.043219641 0.67940009 8.6692843e-39
0.44071004 -0.041897245 0.67923146 8.3930589e-39
0.44250035 -0.040508389 0.68028128 9.4061263e-39
0.44421351 -0.039175987 0.68013638 9.3139306e-39
0.44607061 -0.037858181 0.67976683 8.8536741e-39
0.44797093 -0.036539815 0.67933798 7.3792741e-39
0.44993544 -0.035223223 0.67881691 5.6257677e-39
0.45197639 -0.033846132 0.67950833 4.33035e-39
0.45482466 -0.031775951 0.68024826 4.5140196e-39
0.45755893 -0.029742517 0.67986745 3.1339858e-39
0.46031794 -0.027697021 0.67947263 2.6737363e-39
0.46321481 -0.025654353 0.678882 3.0443195e-39
0.46528056 -0.024246302 0.67960894 5.8105247e-39
0.46725106 -0.022874393 0.67918026 7.7476951e-39
0.46964806 -0.021488447 0.67942071 8.024638e-39
0.45351756 -0.074474148 0.68100917 7.8409698e-39
0.44160163 -0.069056049 0.68175232 6.3614999e-39
0.4448992 -0.070674151 0.68298995 5.7175724e-39
0.44192499 -0.068916753 0.68386805 6.4540542e-39
0.43856597 -0.065148339 0.68276238 5.8083247e-39
0.43595588 -0.061888937 0.68221217 6.3614985e-39
0.43453178 -0.059124865 0.68280709 5.1629553e-39
0.4332695 -0.055512305 0.68225312 7.8373488e-39
0.43407479 -0.05222166 0.68268138 7.9313521e-39
0.4349578 -0.049946256 0.6820991 6.5502323e-39
0.43560514 -0.048548784 0.68235087 6.5505953e-39
0.43687442 -0.046247434 0.68246078 6.9190163e-39
0.43861678 -0.043938827 0.68311954 6.6427909e-39
0.44077486 -0.041687265 0.68310559 8.2086691e-39
0.44258505 -0.040377848 0.68279177 8.7611198e-39
0.44443178 -0.039067492 0.68242902 9.1298995e-39
0.44628596 -0.037751805 0.68206465 9.4061263e-39
0.44826075 -0.036379788 0.68283498 7.378914e-39
0.45083979 -0.034600962 0.68264991 5.622881e-39
0.45490438 -0.031664807 0.68275559 3.8697404e-39
0.45770258 -0.029643379 0.68227333 2.5819008e-39
0.45953321 -0.02828354 0.68202043 3.5020424e-39
0.46157461 -0.026886439 0.68275827 3.041793e-39
0.4635219 -0.025528081 0.68234438 4.0573812e-39
0.46556836 -0.024122059 0.68309796 5.9952747e-39
0.4677307 -0.022773013 0.68237519 9.1298995e-39
0.47044882 -0.02142111 0.68212062 8.9455096e-39
0.47344741 -0.020040179 0.68276584 8.0242792e-39
0.47619444 -0.018674318 0.68251199 7.7480539e-39
0.44014382 -0.067315832 0.68413836 6.0849116e-39
0.44238538 -0.068807207 0.68575311 5.7161305e-39
0.43768239 -0.064154558 0.6855365 7.467846e-39
0.43875629 -0.065599933 0.68640959 7.0990635e-39
0.43655285 -0.06215987 0.68563622 6.9146722e-39
0.43455461 -0.058942027 0.6854167 6.6380854e-39
0.43533719 -0.059615545 0.6867615 4.4253902e-39
0.43343496 -0.056249589 0.68551058 7.9288242e-39
0.43405804 -0.052520227 0.68535858 8.1157462e-39
0.43524837 -0.051083706 0.68690789 6.1821757e-39
0.43605369 -0.049090922 0.6855793 6.1821757e-39
0.43720117 -0.04706677 0.68500805 6.1821757e-39
0.43828088 -0.045660149 0.68587106 6.1821757e-39
0.43965784 -0.043373257 0.68581182 6.2740112e-39
0.44080895 -0.041546762 0.68568784 6.2743699e-39
0.44272053 -0.040255308 0.68520862 6.3662068e-39
0.44587818 -0.038037892 0.68535757 6.6427909e-39
0.44851613 -0.036216106 0.68636775 5.8130372e-39
0.45130143 -0.034228727 0.6858536 4.5169034e-39
0.45500335 -0.031556517 0.68522167 3.0421503e-39
0.45779824 -0.029539097 0.6847446 2.3978739e-39
0.45979899 -0.028145557 0.68553054 3.0421517e-39
0.46183872 -0.026752416 0.6862675 3.7782664e-39
0.46380401 -0.025399916 0.6858269 4.1495699e-39
0.46582949 -0.02404679 0.68530494 4.8903705e-39
0.46851334 -0.022702234 0.68508637 6.9186575e-39
0.47124743 -0.021353967 0.68481302 8.4848944e-39
0.47577748 -0.019039547 0.68574286 8.5767299e-39
0.44320947 -0.069995463 0.68966019 7.099425e-39
0.44475585 -0.071546726 0.68978167 6.7324488e-39
0.43996584 -0.066972725 0.68837357 6.4536941e-39
0.44166726 -0.068448335 0.68953902 7.5600416e-39
0.43853778 -0.064743474 0.68808043 8.0210198e-39
0.43685552 -0.061757877 0.68820906 7.5600416e-39
0.43473017 -0.058080345 0.6877625 6.6380854e-39
0.43560672 -0.059480332 0.68894684 7.467846e-39
0.43351784 -0.055818625 0.68844885 8.4819979e-39
0.43403637 -0.053288754 0.68803042 8.0235519e-39
0.43636742 -0.049634825 0.68857294 6.1821757e-39
0.43786037 -0.046936825 0.68787599 6.1821757e-39
0.43853128 -0.046177629 0.68940187 6.1821757e-39
0.43993458 -0.04369108 0.68886161 6.1821757e-39
0.44174418 -0.04096872 0.68854254 6.1821757e-39
0.44560599 -0.038102709 0.6884166 6.1821757e-39
0.44870383 -0.036109965 0.6886822 5.9055902e-39
0.45144084 -0.034120303 0.6882453 3.5049277e-39
0.45419979 -0.03212123 0.68779391 2.6740951e-39
0.45611563 -0.030730672 0.68868685 2.2142057e-39
0.45799643 -0.02938994 0.68834496 2.1216528e-39
0.46002561 -0.028003987 0.68908238 2.1220115e-39
0.4619875 -0.026660617 0.6886366 2.4900681e-39
0.46396345 -0.025311951 0.68818021 3.7825936e-39
0.46623939 -0.023936421 0.68857002 5.2591488e-39
0.46886235 -0.022589274 0.68844712 6.2743699e-39
0.47148195 -0.021233913 0.68834603 6.9190163e-39
0.47548249 -0.019169314 0.68877387 7.9324423e-39
0.44886398 -0.073128581 0.69232833 7.3814434e-39
0.44375896 -0.069904849 0.69138277 8.8515007e-39
0.44561878 -0.0709773 0.69187087 8.2994144e-39
0.44047475 -0.066775136 0.69146883 8.0210198e-39
0.4424642 -0.068309039 0.69216329 9.4039542e-39
0.43838391 -0.064245172 0.69138342 8.3898023e-39
0.43675289 -0.061278436 0.69143122 8.5745523e-39
0.43480819 -0.057911277 0.69025886 8.7585848e-39
0.43538556 -0.058544874 0.69192654 8.6663892e-39
0.43373427 -0.055415105 0.69115132 8.7585848e-39
0.43427053 -0.052864246 0.6911422 7.2867114e-39
0.43641445 -0.049451642 0.69154924 6.1821757e-39
0.43856564 -0.046027422 0.69195795 6.1821757e-39
0.44030699 -0.043311957 0.69174027 6.1821757e-39
0.44237617 -0.040349491 0.69187146 6.1821757e-39
0.44540468 -0.038176276 0.69134665 6.1821757e-39
0.44886988 -0.036001429 0.69102132 6.0896213e-39
0.45194578 -0.033757597 0.69134647 4.244648e-39
0.44038647 -0.032165926 0.69038093 4.5219495e-39
0.45441121 -0.031966019 0.69135809 3.6907609e-39
0.45635313 -0.030582931 0.69220543 4.4290378e-39
0.45824957 -0.029248033 0.69183981 4.0598994e-39
0.46019298 -0.02791198 0.69141227 3.7833153e-39
0.46355772 -0.025648231 0.69139212 4.521232e-39
0.46627933 -0.02378913 0.69238293 5.9974271e-39
0.46890169 -0.022495441 0.69096988 6.1821757e-39
0.47358918 -0.019732796 0.69161397 6.9190177e-39
0.47794729 -0.018431157 0.69152278 7.1966892e-39
0.44904393 -0.07284829 0.69591993 7.1966878e-39
0.45245638 -0.074706614 0.69442225 8.2101152e-39
0.44752258 -0.071513467 0.69316095 8.1157476e-39
0.4411118 -0.066706203 0.69304198 1.0233715e-38
0.43872827 -0.06428986 0.69429505 8.2057712e-39
0.4370864 -0.061326526 0.69436085 7.9291843e-39
0.43566039 -0.058413289 0.69408292 8.0210198e-39
0.43436316 -0.055705022 0.69446677 8.2057712e-39
0.434174 -0.052675523 0.69390965 7.0104846e-39
0.43576908 -0.04988496 0.69520426 6.4583982e-39
0.43749049 -0.047190487 0.69500244 6.1821757e-39
0.43884051 -0.045209959 0.69411349 6.1821757e-39
0.44006118 -0.043125965 0.69473571 6.1821757e-39
0.442579 -0.040450752 0.69457531 6.1821757e-39
0.44552958 -0.038465157 0.6950345 6.1821757e-39
0.44734153 -0.037157688 0.69474059 6.1821757e-39
0.44919989 -0.035850346 0.69438338 6.1821757e-39
0.45100617 -0.034529902 0.69411862 5.9977858e-39
0.45302051 -0.033168126 0.69482833 6.1821757e-39
0.45487148 -0.031842191 0.69451445 6.1821757e-39
0.4567374 -0.030511878 0.6941874 6.1821757e-39
0.45866215 -0.02918211 0.69377995 6.1821757e-39
0.46020046 -0.028245775 0.6948359 6.0899801e-39
0.46338055 -0.026007079 0.69423813 5.9977858e-39
0.49033025 -0.026773777 0.69395214 8.0264512e-39
0.4665764 -0.02371889 0.69449973 6.1821757e-39
0.4683767 -0.022346821 0.69433522 6.1821757e-39
0.47022843 -0.020974074 0.69410235 6.3662068e-39
0.47382814 -0.019663859 0.69382083 6.9204638e-39
0.47520512 -0.01969834 0.69432342 6.9204638e-39
0.44997662 -0.072839677 0.69702554 7.1966892e-39
0.45090914 -0.072831064 0.69813097 7.1044949e-39
0.4541527 -0.074650049 0.69691885 8.1175581e-39
0.44293559 -0.069314659 0.69787657 7.0997852e-39
0.44629818 -0.071039416 0.69768202 8.0231862e-39
0.4472273 -0.071031004 0.69878304 8.0235477e-39
0.44046164 -0.066370219 0.69667846 8.1135756e-39
0.44168139 -0.067838036 0.69730341 7.6525974e-39
0.43890619 -0.064299665 0.69745821 7.1919794e-39
0.43721452 -0.061333518 0.69760531 7.0997838e-39
0.43584922 -0.058439154 0.69723225 7.2838149e-39
0.43450573 -0.055026442 0.69769138 7.284175e-39
0.4343994 -0.052460514 0.69743305 7.3767322e-39
0.4347676 -0.050334111 0.69812745 7.4678446e-39
0.43660754 -0.047670856 0.69772702 6.3629474e-39
0.439767 -0.043286309 0.69779468 5.9045028e-39
0.44292545 -0.040572871 0.69703436 6.0896185e-39
0.44445378 -0.03966374 0.69803405 6.0892584e-39
0.50814033 -0.040255725 0.69771326 6.6247114e-39
0.44625628 -0.038363233 0.6977483 6.0899787e-39
0.44806582 -0.037057661 0.69746149 6.1821743e-39
0.44983065 -0.03574013 0.69725478 6.1821757e-39
0.45182598 -0.034383878 0.69797933 5.9974215e-39
0.45361313 -0.033058643 0.69775736 6.0892584e-39
0.45543709 -0.031732146 0.69748777 6.0896171e-39
0.45732567 -0.030407328 0.69712842 6.0896185e-39
0.46040738 -0.028379915 0.69750899 6.0899801e-39
0.46351582 -0.026345132 0.69787031 5.9970614e-39
0.46525905 -0.024981247 0.69777536 5.9970614e-39
0.46839711 -0.024505068 0.69774759 5.8115981e-39
0.46704629 -0.023616593 0.69762254 5.9970614e-39
0.46884996 -0.022248054 0.69745421 6.089257e-39
0.47049683 -0.020905819 0.69625592 6.1821757e-39
0.47177884 -0.020886572 0.69815814 5.9045028e-39
0.47521475 -0.019564109 0.69813126 5.8115841e-39
0.45230767 -0.072818145 0.69978869 6.9193806e-39
0.45369035 -0.07280191 0.7014699 6.6413476e-39
0.44352835 -0.069235407 0.6995036 7.930629e-39
0.44488487 -0.069216356 0.70119774 7.2856282e-39
0.44858953 -0.071011692 0.70048285 7.2863498e-39
0.44059867 -0.066198885 0.69903582 7.1919794e-39
0.44184065 -0.067131706 0.70047712 6.9157582e-39
0.43895793 -0.063580871 0.70080656 6.8239227e-39
0.43722212 -0.060880028 0.70059812 6.8235612e-39
0.43585834 -0.057729516 0.70065469 6.6402532e-39
0.43546897 -0.055115312 0.70085508 6.8242843e-39
0.43546176 -0.052309841 0.70086682 6.5476974e-39
0.43555695 -0.049521714 0.70071316 5.0685918e-39
0.43721476 -0.046622932 0.70018172 5.1629581e-39
0.43907392 -0.044371922 0.70062041 5.2558768e-39
0.44118166 -0.042151757 0.70067233 5.4409925e-39
0.44301897 -0.04087054 0.7003125 5.5335511e-39
0.44512883 -0.039552964 0.70081192 5.2555166e-39
0.44671643 -0.038292285 0.69958818 5.7186654e-39
0.44833171 -0.03739043 0.70046139 5.4409925e-39
0.45129779 -0.035201937 0.70008445 5.6264698e-39
0.45336568 -0.034269236 0.70197219 4.6987275e-39
0.45477957 -0.032960743 0.70105958 5.2551551e-39
0.45743197 -0.030961499 0.70079637 5.2558782e-39
0.46075478 -0.028529404 0.69995308 5.5335511e-39
0.46239853 -0.027609799 0.70084178 5.2558768e-39
0.4642182 -0.026262037 0.70062423 5.4402708e-39
0.46591616 -0.024895832 0.70059973 5.4409925e-39
0.46761936 -0.023525272 0.70057517 5.5331881e-39
0.46990687 -0.022158654 0.70095205 5.1622378e-39
0.47306079 -0.020867426 0.70005745 5.2555166e-39
0.47639632 -0.019536231 0.70018828 5.1622378e-39
0.47774136 -0.019567821 0.70073843 6.1745807e-39
0.45455277 -0.072778337 0.70268142 5.8061583e-39
0.45635045 -0.07295607 0.70245612 5.7049215e-39
0.44624084 -0.069197319 0.70289129 6.4540612e-39
0.4485161 -0.070081815 0.70315063 5.8990798e-39
0.45122063 -0.070953593 0.70402241 4.9735039e-39
0.45483071 -0.071206123 0.70478898 5.7049215e-39
0.45669627 -0.071395487 0.7044605 5.7049215e-39
0.44276604 -0.066990435 0.70327049 5.713964e-39
0.44055882 -0.064486407 0.70294309 5.5313777e-39
0.44223547 -0.065941803 0.70410931 4.4192455e-39
0.43701398 -0.060044266 0.70221555 6.2721965e-39
0.4392187 -0.062206376 0.70380157 4.8834789e-39
0.47312963 -0.062837593 0.70248365 6.1662612e-39
0.43688503 -0.058228046 0.70395702 4.9735039e-39
0.43667191 -0.054985926 0.70404297 4.3270499e-39
0.43668425 -0.052188613 0.70402324 4.1415754e-39
0.43678764 -0.049406391 0.70385742 3.8649858e-39
0.43742236 -0.047410663 0.70283979 3.9571842e-39
0.43862706 -0.046048407 0.70346838 3.8649886e-39
0.44012952 -0.044028141 0.70362633 4.04974e-39
0.44185606 -0.042481165 0.70385998 4.2341312e-39
0.44347847 -0.040796742 0.70214283 4.6990876e-39
0.44565138 -0.039891105 0.70381814 4.0501029e-39
0.44875732 -0.037744571 0.70319557 4.2352172e-39
0.45037919 -0.036845904 0.70405883 3.9579045e-39
0.50296021 -0.037593555 0.7026937 7.3796329e-39
0.45189938 -0.035564579 0.70297027 4.236299e-39
0.45446128 -0.034223072 0.70409048 3.9579031e-39
0.4558056 -0.032906719 0.70329243 4.1426601e-39
0.45755133 -0.032010209 0.70399743 3.9575415e-39
0.45974472 -0.03023163 0.70360625 4.0501001e-39
0.46150622 -0.028890222 0.70346224 4.1419356e-39
0.46328616 -0.027545428 0.70329911 4.1430188e-39
0.46469927 -0.02620833 0.70243317 4.4210532e-39
0.46637917 -0.025287241 0.70327979 4.0501029e-39
0.46804303 -0.024810709 0.70499456 3.77243e-39
0.46954823 -0.023134869 0.70338315 4.0504644e-39
0.47170895 -0.02209441 0.70458472 3.77243e-39
0.48118812 -0.021069221 0.70326614 5.0624443e-39
0.47331953 -0.020799097 0.70220286 4.6068906e-39
0.47510362 -0.020827048 0.703354 5.2475615e-39
0.47857246 -0.020965112 0.70330393 5.1550029e-39
0.44776016 -0.075880632 0.70553905 6.7328145e-39
0.44843239 -0.069151483 0.70581675 4.6933017e-39
0.45154604 -0.069839597 0.7064746 5.796757e-39
0.45425475 -0.069561869 0.70693648 5.796757e-39
0.45797661 -0.069932655 0.70629674 5.7049215e-39
0.445786 -0.067019306 0.70614415 5.1528337e-39
0.44822136 -0.06724254 0.70740998 5.520533e-39
0.45937616 -0.068495683 0.70794713 6.5328759e-39
0.44257471 -0.06476111 0.7061156 4.4170749e-39
0.44467008 -0.065448105 0.70704722 5.1524736e-39
0.46612489 -0.063336737 0.70785248 6.4406816e-39
0.44035897 -0.061882894 0.70623237 4.2326837e-39
0.44165266 -0.062120203 0.707569 4.9688026e-39
0.4679516 -0.062060088 0.70764148 6.2566519e-39
0.47199947 -0.061002575 0.70666641 6.1648164e-39
0.43926078 -0.058524098 0.70628089 4.9688026e-39
0.44144502 -0.05927664 0.70789623 4.8766083e-39
0.472987 -0.059559681 0.70771742 6.1648164e-39
0.47906923 -0.057206891 0.70634198 5.8885925e-39
0.43794063 -0.054956432 0.70583856 4.9688026e-39
0.43954188 -0.054987367 0.70710385 4.9688026e-39
0.43787491 -0.052146412 0.70594323 4.0486539e-39
0.43933976 -0.052152503 0.7074244 4.9688026e-39
0.43790972 -0.049354278 0.70588779 3.8646242e-39
0.43871823 -0.049329866 0.707142 4.0486539e-39
0.48728329 -0.050440356 0.70701241 6.7169056e-39
0.48964411 -0.049181372 0.70614773 6.7169056e-39
0.43956128 -0.046777826 0.70631135 3.8642655e-39
0.44151282 -0.045974813 0.70778942 4.9688026e-39
0.49075061 -0.046261273 0.70707154 6.7169056e-39
0.49201858 -0.047915109 0.70527804 6.7169056e-39
0.44262752 -0.043784868 0.70645565 4.2323249e-39
0.44511026 -0.042372696 0.70720232 4.6925786e-39
0.49185747 -0.043339871 0.70799589 6.7169056e-39
0.44576895 -0.040710077 0.70617169 4.2323249e-39
0.44832212 -0.039742868 0.70725298 4.5085489e-39
0.44923973 -0.038106158 0.70582789 3.8646242e-39
0.4511615 -0.037463211 0.70664585 4.2326837e-39
0.45307279 -0.036818244 0.7074877 4.6925786e-39
0.45299399 -0.035517447 0.70508349 3.8646242e-39
0.4548485 -0.035074636 0.70644665 4.1404894e-39
0.45723042 -0.034205072 0.70743036 4.2326837e-39
0.45806944 -0.032886099 0.70615429 3.9564597e-39
0.46053979 -0.031323504 0.70660734 4.2323249e-39
0.46278805 -0.030188423 0.70782751 3.77243e-39
0.46385157 -0.028520355 0.70623076 3.77243e-39
0.46575737 -0.027494306 0.70714653 3.77243e-39
0.46704713 -0.026144996 0.70647782 3.77243e-39
0.46926969 -0.024785383 0.70693958 4.4167134e-39
0.47114885 -0.024827186 0.70791966 5.1528323e-39
0.48587924 -0.024058662 0.706523 6.0726222e-39
0.47067606 -0.023437139 0.70611215 3.77243e-39
0.47286543 -0.023042249 0.70622683 5.1528323e-39
0.47546321 -0.022894707 0.70659137 5.1528323e-39
0.47807193 -0.022746304 0.70695704 5.1528323e-39
0.4815208 -0.0224187 0.70654428 5.0638933e-39
0.48429495 -0.022540707 0.70629674 5.6177887e-39
0.44955876 -0.066162772 0.70911974 4.1404894e-39
0.45155746 -0.066981792 0.70981443 5.4283388e-39
0.45470682 -0.067531966 0.70917988 5.8885925e-39
0.45758894 -0.067315817 0.70898062 6.2566519e-39
0.46085727 -0.067172475 0.70822203 6.6247114e-39
0.44617948 -0.063554756 0.70890111 5.796757e-39
0.44839805 -0.064264365 0.70965588 4.5085489e-39
0.45588267 -0.065146901 0.71073294 6.5328759e-39
0.45799226 -0.065372474 0.71004009 6.5328759e-39
0.4603734 -0.064637356 0.70978695 6.5328759e-39
0.46332785 -0.065228432 0.70827317 6.5325171e-39
0.4430767 -0.061915945 0.70870191 5.3365033e-39
0.44530621 -0.061254252 0.70992482 5.796757e-39
0.44760776 -0.061646663 0.71087795 4.1404894e-39
0.46084887 -0.062705845 0.71073836 6.5328759e-39
0.46392849 -0.062298451 0.70987749 6.6247114e-39
0.466277 -0.060317695 0.71012729 6.6247114e-39
0.46898127 -0.060632303 0.70861864 6.2566519e-39
0.44264331 -0.058370326 0.70926142 4.6007431e-39
0.46783513 -0.058990233 0.71031356 6.5328759e-39
0.46963811 -0.058420185 0.71014559 6.3488461e-39
0.47265211 -0.057971496 0.70945936 6.3488461e-39
0.44211897 -0.055021942 0.70936346 4.6925786e-39
0.47276795 -0.056466401 0.71053302 6.5328759e-39
0.47515854 -0.055689353 0.71036369 6.4406816e-39
0.47953272 -0.055665426 0.70816773 6.2566519e-39
0.48086208 -0.054269373 0.70874029 6.4410404e-39
0.44089311 -0.05217392 0.7087661 4.7847728e-39
0.44240063 -0.052187208 0.71018219 4.7847728e-39
0.4785938 -0.053254679 0.7107693 6.5328759e-39
0.48238218 -0.052901529 0.70904261 6.4410404e-39
0.48390573 -0.051530577 0.7093457 6.4410404e-39
0.44017321 -0.049334139 0.70863771 4.8766083e-39
0.44230574 -0.04937163 0.71033096 4.8766083e-39
0.44264778 -0.046813402 0.70903897 4.9688026e-39
0.4452374 -0.046527606 0.71036768 4.7847728e-39
0.48625958 -0.047216609 0.71095276 6.8087411e-39
0.44555503 -0.044403981 0.70903337 4.7847728e-39
0.44825175 -0.043065239 0.70988238 4.7847728e-39
0.45079911 -0.042152762 0.71097815 4.7847728e-39
0.44901735 -0.040763117 0.70869768 4.7847728e-39
0.45137423 -0.040005315 0.70959389 4.6925786e-39
0.45420647 -0.039540961 0.71077853 5.2446678e-39
0.49276447 -0.040390991 0.70920205 6.7169056e-39
0.45245028 -0.038149953 0.70844334 4.6925786e-39
0.45447195 -0.037519623 0.7091198 4.7844141e-39
0.45699662 -0.037599582 0.71029574 5.2446678e-39
0.45924705 -0.036996692 0.71064818 5.2446678e-39
0.492778 -0.03892469 0.7091831 6.6250701e-39
0.45597136 -0.035527006 0.70808923 4.6925786e-39
0.45782521 -0.03557919 0.70904028 5.2446678e-39
0.46029359 -0.034830697 0.70957267 5.0606381e-39
0.46262181 -0.034334298 0.71057987 5.0606381e-39
0.49020582 -0.035065204 0.71032345 6.6250701e-39
0.46125352 -0.032919168 0.70887965 4.9688026e-39
0.46363571 -0.031821217 0.70948076 4.9688026e-39
0.46625444 -0.030608818 0.71016127 4.9688026e-39
0.48834819 -0.031310868 0.71046966 6.0726222e-39
0.46661016 -0.028418107 0.70880008 4.9688026e-39
0.46894634 -0.028239448 0.70991933 5.1528323e-39
0.47193739 -0.027634462 0.71050477 5.4286975e-39
0.48498875 -0.028243456 0.71028197 6.4406816e-39
0.48727122 -0.029110383 0.70951653 6.2566519e-39
0.46969891 -0.02616642 0.7088086 5.1528323e-39
0.47251025 -0.025792718 0.70924926 5.2446678e-39
0.47541004 -0.025518358 0.70966589 5.0606381e-39
0.47915354 -0.025091248 0.70996106 5.0606381e-39
0.48150152 -0.025178898 0.71030694 6.4406816e-39
0.48432449 -0.026301369 0.70957643 6.4406816e-39
0.47941041 -0.023716211 0.7083447 5.0606381e-39
0.4816117 -0.02378658 0.70890641 5.0606381e-39
0.44937405 -0.063116938 0.71191496 5.1524736e-39
0.45107445 -0.064169861 0.71222591 5.7045627e-39
0.45402941 -0.063965417 0.71188313 6.5328759e-39
0.45730364 -0.063818172 0.71108156 6.5328759e-39
0.44858116 -0.060769636 0.71238518 5.3365033e-39
0.45187503 -0.061117619 0.7130847 6.3488461e-39
0.45444736 -0.06133239 0.71291178 6.6247114e-39
0.45737129 -0.061612234 0.71222961 6.5328759e-39
0.46015429 -0.061152473 0.71178102 6.5328759e-39
0.46309778 -0.06071632 0.71111745 6.6247114e-39
0.44536114 -0.057893056 0.71185023 5.0606381e-39
0.44866648 -0.05806224 0.71300405 6.1648164e-39
0.45156768 -0.058243535 0.71355373 6.1648164e-39
0.45478737 -0.058481619 0.71364385 6.6247114e-39
0.45748201 -0.058709882 0.7133075 6.6247114e-39
0.46028751 -0.058956772 0.7128287 6.5328759e-39
0.46383676 -0.057822533 0.71250778 6.6247114e-39
0.46624768 -0.058077935 0.71141821 6.6250701e-39
0.49416801 -0.058925629 0.7116369 6.4406816e-39
0.44516075 -0.055053726 0.7121616 5.2446678e-39
0.44854137 -0.055230588 0.7131964 5.9807867e-39
0.45114708 -0.055616278 0.71378016 6.0726222e-39
0.45796245 -0.056585256 0.71382987 6.6247114e-39
0.46056056 -0.056079127 0.71366251 6.6247114e-39
0.46295419 -0.055264413 0.71357203 6.5328759e-39
0.46655908 -0.054894838 0.71303016 6.5328759e-39
0.46980095 -0.055703137 0.71156675 6.5328759e-39
0.47213346 -0.054919884 0.71146095 6.5328759e-39
0.44388628 -0.052196607 0.7116335 4.4167134e-39
0.44575867 -0.052272514 0.71248734 6.1648164e-39
0.44864869 -0.052440666 0.71303135 6.0726222e-39
0.45149958 -0.052600622 0.71365768 5.9807867e-39
0.46629426 -0.052919436 0.71383476 6.5328759e-39
0.46967983 -0.052229751 0.71339989 6.5328759e-39
0.47266364 -0.052982714 0.71234292 6.5328759e-39
0.47530153 -0.052960493 0.7118113 6.5328759e-39
0.47704053 -0.052360944 0.71177214 6.5328759e-39
0.48090255 -0.051214613 0.71116674 6.5328759e-39
0.4437421 -0.050072394 0.71185827 4.7847728e-39
0.44552302 -0.049338073 0.71210086 5.7049215e-39
0.44870415 -0.049640745 0.71294612 6.1648164e-39
0.45160782 -0.049803331 0.71349251 6.0726222e-39
0.45380431 -0.049222305 0.71388799 5.9807867e-39
0.473059 -0.04980189 0.7138316 6.5328759e-39
0.47548485 -0.050243173 0.71319848 6.5328759e-39
0.47885424 -0.049525257 0.71287227 6.5328759e-39
0.48187265 -0.049038056 0.71225345 6.5328759e-39
0.48399442 -0.048482649 0.71169901 6.5328759e-39
0.44629219 -0.047453683 0.71166015 5.2446678e-39
0.44870242 -0.046736009 0.71219838 5.5208917e-39
0.45179486 -0.047016896 0.71320689 5.796757e-39
0.45441622 -0.046105877 0.71358305 5.796757e-39
0.47553438 -0.047800966 0.7139504 6.6250701e-39
0.47817284 -0.04653395 0.71385264 6.6250701e-39
0.48155808 -0.045802172 0.7135281 6.6250701e-39
0.48422348 -0.046262834 0.7126112 6.8087411e-39
0.44882154 -0.044816099 0.71151286 5.7049215e-39
0.45149782 -0.04401673 0.7119953 5.7049215e-39
0.4543899 -0.043131977 0.71250093 5.7049215e-39
0.45747036 -0.043132439 0.71332586 5.796757e-39
0.45977321 -0.042548493 0.71359861 5.8885925e-39
0.46204591 -0.042667471 0.71392977 6.0726222e-39
0.48199081 -0.043403771 0.71373314 6.7169056e-39
0.4848209 -0.043373544 0.71299529 6.8087411e-39
0.48746991 -0.04360446 0.711712 6.7169056e-39
0.45239699 -0.040834293 0.71103585 5.7049215e-39
0.45481929 -0.040479403 0.71151501 5.5208917e-39
0.45741177 -0.040360019 0.71216768 5.7049215e-39
0.46023774 -0.040485471 0.71290255 5.8885925e-39
0.46325415 -0.040636439 0.71337414 6.0726222e-39
0.46610543 -0.040547684 0.71370006 6.0726222e-39
0.46876371 -0.040214699 0.71391678 6.0726222e-39
0.48246324 -0.041010007 0.71388084 6.8087411e-39
0.48456743 -0.040434338 0.71335512 6.8087411e-39
0.48743129 -0.040395837 0.71259135 6.8087411e-39
0.48964554 -0.041575275 0.7111131 6.7169056e-39
0.45869243 -0.038342882 0.71148372 5.2446678e-39
0.46093899 -0.037739053 0.71185172 5.3365033e-39
0.46379632 -0.037861735 0.71256781 6.0726222e-39
0.46684837 -0.038009025 0.71301651 6.0726222e-39
0.46999273 -0.037450753 0.71335429 6.0726222e-39
0.47220707 -0.037548561 0.71383363 5.8889512e-39
0.4755252 -0.037005857 0.71396375 6.4406816e-39
0.47815585 -0.036432445 0.71387696 6.4406816e-39
0.48065913 -0.03656178 0.71398914 6.3488461e-39
0.48443544 -0.037513647 0.71354252 6.8087411e-39
0.48731127 -0.037953489 0.71276093 6.8087411e-39
0.48914617 -0.037128512 0.71181679 6.7169056e-39
0.46355826 -0.035399113 0.71167749 5.3365033e-39
0.46632394 -0.034452867 0.71213502 5.796757e-39
0.46889848 -0.03385511 0.71247923 6.0726222e-39
0.47246811 -0.0339933 0.71345478 5.8889512e-39
0.47841382 -0.034519985 0.71391773 6.6247114e-39
0.48166561 -0.034454875 0.71378577 6.3488461e-39
0.48433316 -0.034598209 0.71368766 6.8087411e-39
0.48662448 -0.034754686 0.71290773 6.7169056e-39
0.46709603 -0.031666849 0.71140671 5.0606381e-39
0.46931219 -0.031038858 0.71187061 5.7045627e-39
0.47214675 -0.03114119 0.71268338 5.7049215e-39
0.4750458 -0.031250115 0.71342164 5.7049215e-39
0.47826266 -0.031394798 0.71372354 6.3488461e-39
0.48183867 -0.03157942 0.71353889 6.3488461e-39
0.48492742 -0.03176285 0.71284401 6.1648164e-39
0.48737466 -0.032658793 0.71184665 6.7169056e-39
0.47072136 -0.028991964 0.71104318 5.4286975e-39
0.47279429 -0.029059336 0.71173811 5.4286975e-39
0.47549859 -0.028309518 0.71202242 5.520533e-39
0.47889245 -0.028577212 0.71281761 5.9807867e-39
0.48194703 -0.028748071 0.71214712 6.3488461e-39
0.48406684 -0.029598374 0.71159571 6.0726222e-39
0.47816765 -0.026437104 0.7113843 5.0606381e-39
0.4807598 -0.02655324 0.71137166 6.4406816e-39
0.45208782 -0.054731101 0.71400678 5.9807867e-39
0.45433086 -0.055577017 0.71433532 6.3488461e-39
0.45771652 -0.055126462 0.71419978 6.6250701e-39
0.45431918 -0.052753888 0.71435273 6.0726222e-39
0.45744652 -0.052958064 0.71460581 6.4410404e-39
0.46092007 -0.052508734 0.71436828 6.6250701e-39
0.4635534 -0.051994711 0.71417022 6.5328759e-39
0.46608716 -0.051458672 0.71414053 6.5328759e-39
0.45469466 -0.050203249 0.71419877 5.9807867e-39
0.45761403 -0.049716316 0.71460211 6.3488461e-39
0.46048647 -0.049332548 0.71476746 6.3488461e-39
0.46369514 -0.048882544 0.71478724 6.4410404e-39
0.46612534 -0.049537022 0.71449691 6.5328759e-39
0.46940199 -0.049534842 0.71422023 6.5328759e-39
0.47198266 -0.048993193 0.71416056 6.6250701e-39
0.45531112 -0.047192484 0.714095 6.0726222e-39
0.45744562 -0.046325106 0.71435827 5.9807867e-39
0.46077716 -0.046100654 0.71458161 6.3488461e-39
0.46402854 -0.046301004 0.71470624 6.3488461e-39
0.4665994 -0.046470374 0.71462274 6.6250701e-39
0.469367 -0.046668142 0.71427149 6.6250701e-39
0.47281903 -0.046894148 0.71418071 6.3488461e-39
0.47536647 -0.046336845 0.71419322 6.6250701e-39
0.47706628 -0.04500246 0.71420962 6.6250701e-39
0.46100128 -0.044005778 0.71424699 6.1648164e-39
0.46348315 -0.043446328 0.71427441 6.1648164e-39
0.46591118 -0.043587886 0.71440017 6.3488461e-39
0.46935028 -0.043804538 0.71429604 6.5328759e-39
0.47283965 -0.044026509 0.71415067 6.3488461e-39
0.47595587 -0.043199323 0.71433049 6.3488461e-39
0.47868666 -0.042930588 0.71434778 6.6250701e-39
0.48048192 -0.042321168 0.71424258 6.6250701e-39
0.4669255 -0.041523576 0.71414226 6.0726222e-39
0.46971628 -0.041209891 0.71417218 6.4406816e-39
0.47305298 -0.040740706 0.71408784 6.3488461e-39
0.47590438 -0.040131193 0.71424001 6.3488461e-39
0.47813067 -0.039773867 0.71432453 6.3488461e-39
0.4810226 -0.039939892 0.71429318 6.6247114e-39
0.47375092 -0.03690403 0.71406215 6.2566519e-39
0.47802734 -0.037858605 0.71406186 6.3488461e-39
0.48172331 -0.037577394 0.71411461 6.4406816e-39
0.49389657 -0.036283221 0.71453863 5.3372264e-39
0.47537822 -0.034109648 0.7141763 6.2566519e-39
0.47714579 -0.033484705 0.71409512 6.6247114e-39
0.43492123 -0.077694118 0.72301769 7.2838149e-39
0.43136394 -0.055115867 0.72444892 6.4406816e-39
0.47014537 -0.026261428 0.72550225 5.6224915e-39
0.48710746 -0.013047926 0.7281329 5.4290576e-39
0.4482007 -0.050120652 0.73600209 4.7887497e-39
0.49154592 -0.045052059 0.73501611 5.8079645e-39
