# .PCD v0.7 - Point Cloud Data file format
VERSION 0.7
FIELDS x y z rgb
SIZE 4 4 4 4
TYPE F F F F
COUNT 1 1 1 1
WIDTH 961
HEIGHT 1
VIEWPOINT 0 0 0 1 0 0 0
POINTS 961
DATA ascii
0.42502713 0.22841203 0.63560236 6.6384371e-39
0.43303776 0.23878434 0.63562888 7.4678348e-39
0.45266876 0.19419527 0.63724393 1.0693474e-38
0.45499867 0.19299915 0.63755852 1.1706157e-38
0.44611675 0.19770777 0.63706708 8.2075102e-39
0.44836086 0.19650023 0.63748384 6.4583646e-39
0.45063758 0.19529893 0.63785756 7.4710452e-39
0.44343582 0.19947276 0.63742334 8.6677527e-39
0.44437838 0.19869737 0.63864237 8.2997016e-39
0.44172481 0.20216252 0.63754034 9.2205495e-39
0.43964502 0.20557041 0.6373589 9.3123822e-39
0.43742335 0.20882764 0.63791585 1.0785308e-38
0.4357222 0.21131091 0.63757068 5.5317532e-39
0.43366966 0.21419474 0.63737988 2.9517918e-39
0.43107742 0.21812133 0.63768512 2.8599577e-39
0.43228447 0.21623737 0.6369701 2.8599577e-39
0.42886984 0.22147053 0.63732255 3.1361774e-39
0.42972124 0.2201657 0.63723373 2.8599563e-39
0.41985333 0.2226392 0.63748103 1.0325428e-38
0.42772233 0.22336373 0.63794494 5.7164962e-39
0.42577106 0.22681452 0.63714296 1.1430319e-38
0.42651761 0.22522078 0.63867515 1.1061166e-38
0.42548746 0.22814031 0.63765579 6.8224682e-39
0.42661127 0.22992274 0.63706583 6.9146638e-39
0.42796755 0.23157215 0.63750327 6.9150226e-39
0.42909813 0.2333639 0.63691294 7.0994138e-39
0.43114176 0.23584978 0.63757092 7.1916109e-39
0.43453866 0.23999578 0.6387068 7.8366159e-39
0.45097327 0.19482376 0.64153498 8.7599469e-39
0.45410165 0.19320136 0.64048684 1.0509448e-38
0.45631874 0.19271527 0.64099211 1.2539196e-38
0.44686061 0.19738881 0.64005435 7.4710452e-39
0.448879 0.19629824 0.63943809 6.0899548e-39
0.44290981 0.20032147 0.64117795 9.3127409e-39
0.44487512 0.19848405 0.64062715 8.4837286e-39
0.44076309 0.20376951 0.64063501 9.6807934e-39
0.44197622 0.20184091 0.63995314 9.6807948e-39
0.43939075 0.20583872 0.64017981 1.0048846e-38
0.4371081 0.20920506 0.63989705 1.1706515e-38
0.43809259 0.20771453 0.64102232 1.0877502e-38
0.4344455 0.21289201 0.64172536 3.2283717e-39
0.4358165 0.21107122 0.64073861 6.3614873e-39
0.43348029 0.21453749 0.63962507 2.9517918e-39
0.43134561 0.2177749 0.64007366 2.8599577e-39
0.42962691 0.22037667 0.64027268 2.9521505e-39
0.42748442 0.22357331 0.64076447 6.6380643e-39
0.42586824 0.22709769 0.63984501 9.3105927e-39
0.45320952 0.23083892 0.6419636 1.0602497e-38
0.42846376 0.23252968 0.64091927 7.0068525e-39
0.43364644 0.2387948 0.64028364 7.1912451e-39
0.4366793 0.2415392 0.64064902 6.637714e-39
0.45569539 0.19357756 0.64484268 1.2815773e-38
0.45762897 0.19393185 0.64442331 1.3644428e-38
0.45957041 0.19428757 0.64400244 1.4196863e-38
0.44683903 0.1969678 0.64292008 6.4580073e-39
0.44890118 0.19589837 0.6422292 7.6547148e-39
0.44312486 0.19998971 0.64363754 8.9439724e-39
0.44497472 0.19810903 0.64328569 8.2075088e-39
0.44097722 0.20321499 0.64451468 9.1283567e-39
0.44176704 0.20206892 0.64315099 9.1283581e-39
0.43945953 0.20560537 0.64337152 1.1245911e-38
0.43707755 0.20908844 0.64373964 1.1245552e-38
0.43827301 0.20735183 0.6435461 1.1522489e-38
0.43451625 0.21246795 0.64444155 3.2283703e-39
0.43545508 0.21142012 0.64279544 4.7027366e-39
0.43291488 0.21479701 0.64347225 2.8599563e-39
0.43126738 0.21726766 0.64306527 2.8599577e-39
0.42827225 0.22168417 0.64411455 3.1361788e-39
0.42953745 0.21985602 0.64328682 2.9521491e-39
0.42716247 0.22382292 0.6432454 7.190864e-39
0.42554235 0.22716816 0.64329362 1.1338123e-38
0.42622375 0.22579914 0.64349771 1.1613964e-38
0.42503297 0.22837205 0.64420766 1.032512e-38
0.42887169 0.23369391 0.64304709 6.5458771e-39
0.43671292 0.24103329 0.64343202 7.1905192e-39
0.43868458 0.24301229 0.64283001 7.2830694e-39
0.44994998 0.1940157 0.64607745 1.1706516e-38
0.45185226 0.19287337 0.64567602 1.401212e-38
0.45376986 0.19322473 0.64526021 1.3275658e-38
0.44595566 0.19732523 0.64630228 7.0104426e-39
0.44778693 0.19578767 0.64693207 8.57592e-39
0.44340172 0.19968519 0.64598072 8.7599469e-39
0.44414508 0.19883591 0.6475181 8.4837286e-39
0.44181344 0.20201416 0.6468305 9.6807934e-39
0.43935671 0.20561689 0.64637488 1.1245911e-38
0.43704531 0.208801 0.64709258 1.1337743e-38
0.43458664 0.21204574 0.64714587 3.4127545e-39
0.43552625 0.2110005 0.64550477 5.6239474e-39
0.43314257 0.21404245 0.64685005 2.9517918e-39
0.43074179 0.21736147 0.6463607 2.8599577e-39
0.42854375 0.22133444 0.64647186 3.4127559e-39
0.42912495 0.22015218 0.64544106 2.9517918e-39
0.42750233 0.22350198 0.6454854 5.4399191e-39
0.42552763 0.22739229 0.6461677 1.1245926e-38
0.42641371 0.22515513 0.6474238 9.9555698e-39
0.42514157 0.22938275 0.64685774 9.864526e-39
0.43848252 0.24238271 0.64600861 7.5592948e-39
0.44837725 0.17511833 0.64848942 1.0694693e-38
0.44927359 0.19429021 0.64861691 1.1338105e-38
0.44574684 0.19718708 0.65038764 6.8264171e-39
0.44714481 0.19586571 0.6508109 8.0234847e-39
0.4432618 0.19994868 0.6490258 8.6681128e-39
0.44434595 0.19850381 0.64997447 8.2997016e-39
0.4418084 0.20176375 0.65011007 1.0601283e-38
0.4394604 0.20522749 0.6490069 1.1154078e-38
0.43707064 0.20836955 0.64985931 1.161432e-38
0.4346593 0.21162656 0.64983368 3.689333e-39
0.43561369 0.21036646 0.64957702 7.6514694e-39
0.4316597 0.21555336 0.64945018 2.8599577e-39
0.4331553 0.21359035 0.64964581 2.9521505e-39
0.43010449 0.21748006 0.64936602 2.8599577e-39
0.42847705 0.22009462 0.64941716 3.1361774e-39
0.42698851 0.2234931 0.64923054 6.8220927e-39
0.42582765 0.22704706 0.64846736 1.1614323e-38
0.42646852 0.22687259 0.65015298 1.1706515e-38
0.42576882 0.22992575 0.64857209 1.0141092e-38
0.42640966 0.22974885 0.65025735 1.0785689e-38
0.42635077 0.23262429 0.65036178 1.0050029e-38
0.4388935 0.24302329 0.65091538 8.2046544e-39
0.44924441 0.19387794 0.65145123 1.1614322e-38
0.44568568 0.19675337 0.65327293 7.2870197e-39
0.44708562 0.1954371 0.65368843 9.5886033e-39
0.44265723 0.20001554 0.65284574 9.5886019e-39
0.44428831 0.19806725 0.65285814 8.2997016e-39
0.44036162 0.20357065 0.65118968 1.1338105e-38
0.44127941 0.20206481 0.65240943 1.1430296e-38
0.43892074 0.20536953 0.65226501 1.1614322e-38
0.43653592 0.2084967 0.6531142 1.0968972e-38
0.43414369 0.21189898 0.65213144 3.6889743e-39
0.43150407 0.21501981 0.65252984 2.8599577e-39
0.43258482 0.21360332 0.6534431 2.9517918e-39
0.4284097 0.21886224 0.65234905 2.9517918e-39
0.4299441 0.21693757 0.65245819 2.8599577e-39
0.42764708 0.22107522 0.65275645 2.9521491e-39
0.42744154 0.22371593 0.65265095 5.3477263e-39
0.42710826 0.2266984 0.65183568 1.1245908e-38
0.4270494 0.22957227 0.65193975 1.1429945e-38
0.42699048 0.23244528 0.65204382 9.8652477e-39
0.42694634 0.23459956 0.65212178 1.0511379e-38
0.44868395 0.19399652 0.65515858 1.1706157e-38
0.4503074 0.1927622 0.65521145 1.1706156e-38
0.44492796 0.19697735 0.6559357 9.5886005e-39
0.44721317 0.19508524 0.65623975 1.0969694e-38
0.44253907 0.19955 0.65582108 9.6807934e-39
0.44028783 0.20311244 0.65410185 1.1706516e-38
0.44116491 0.20159432 0.65538323 1.1706515e-38
0.43741673 0.20669369 0.65623534 1.1706515e-38
0.43885261 0.20490864 0.6551649 1.1706515e-38
0.4360007 0.20869625 0.65589094 1.1153359e-38
0.43412593 0.21144101 0.6549533 4.0577456e-39
0.43099836 0.21528244 0.65481007 2.8599577e-39
0.43261558 0.21316275 0.6561774 3.043986e-39
0.42838067 0.21837801 0.65519929 2.8599577e-39
0.42942005 0.21695295 0.65616977 2.8599577e-39
0.4274869 0.21939956 0.65676641 3.1361788e-39
0.42713991 0.22622348 0.65458405 7.4678194e-39
0.42663926 0.2288689 0.65546519 9.7723052e-39
0.42670289 0.2325182 0.65535325 1.0325877e-38
0.42810345 0.23562606 0.65568542 7.3752748e-39
0.45271373 0.19123989 0.65810329 1.1705797e-38
0.44853514 0.19427481 0.6581642 1.1613963e-38
0.45103818 0.19245683 0.65812773 1.1705797e-38
0.4452146 0.19668648 0.65821266 1.1429579e-38
0.44242945 0.19909021 0.6587674 1.1337745e-38
0.43967637 0.2031576 0.65791416 1.1706156e-38
0.44104463 0.20112358 0.65835243 1.1706156e-38
0.43732053 0.20621759 0.65916657 1.1706156e-38
0.43830943 0.20518929 0.65747863 1.1706156e-38
0.43592596 0.20822333 0.65878969 1.1429936e-38
0.43358526 0.21154873 0.65820235 4.0577456e-39
0.43087682 0.21493191 0.65826637 2.8599577e-39
0.42806673 0.21848261 0.65853357 2.9517918e-39
0.42953885 0.21654502 0.65874273 2.8599577e-39
0.42664072 0.22076029 0.65917611 3.5971472e-39
0.42594251 0.22370309 0.65947431 7.1908668e-39
0.42604241 0.22663429 0.65929914 1.0692784e-38
0.42613736 0.22956443 0.6591326 1.0509895e-38
0.42642432 0.23259449 0.65862942 8.5741712e-39
0.42836547 0.23525193 0.65801173 7.0064909e-39
0.43009609 0.23708381 0.65777314 7.6515002e-39
0.43208891 0.23854166 0.65986115 7.3749119e-39
0.45155501 0.19187504 0.66274387 1.1706516e-38
0.4532837 0.19087738 0.66126788 1.1706156e-38
0.44887376 0.19418991 0.6607998 1.1706156e-38
0.45083919 0.19272159 0.66119486 1.1614322e-38
0.44589257 0.19635363 0.66119564 1.1706156e-38
0.44098043 0.2006786 0.66121238 1.1706156e-38
0.44292974 0.19850409 0.66158849 1.1706156e-38
0.43972635 0.20237209 0.66150028 1.1706156e-38
0.43722796 0.20574535 0.66207719 1.1706156e-38
0.43818808 0.20470731 0.66044486 1.1705797e-38
0.43444145 0.20974204 0.6613332 7.3748923e-39
0.43586245 0.20775762 0.66165531 1.1706156e-38
0.43322638 0.2114228 0.66158098 3.4127545e-39
0.43151617 0.21398526 0.66176891 2.9517946e-39
0.42857081 0.21825498 0.66042709 3.0443531e-39
0.42995158 0.21724629 0.66189891 2.9521575e-39
0.42789581 0.2208162 0.66160154 3.0443531e-39
0.42673168 0.2232085 0.66178733 3.4131231e-39
0.42573258 0.22599223 0.66261041 6.1774701e-39
0.42562294 0.22952862 0.66280198 9.6793809e-39
0.42632592 0.2327611 0.66157407 7.190864e-39
0.4286266 0.23487912 0.66032994 6.7299026e-39
0.43035471 0.23670712 0.66009593 7.0983264e-39
0.43408197 0.23999968 0.66194916 6.8220983e-39
0.4518041 0.19158252 0.66505325 1.1706515e-38
0.4539147 0.19054042 0.66431797 1.1706516e-38
0.44886199 0.19321552 0.66581476 1.1706515e-38
0.44387454 0.19772506 0.66456211 1.1706516e-38
0.44594467 0.19577071 0.66520262 1.1706515e-38
0.44094718 0.20024861 0.66400683 1.1706515e-38
0.44242603 0.19899519 0.66425598 1.1706515e-38
0.43915471 0.20267592 0.66520399 1.1706515e-38
0.43685314 0.20609203 0.66408491 1.1706156e-38
0.43816149 0.20426844 0.6632359 1.1706515e-38
0.4345336 0.2093419 0.66392338 8.9414515e-39
0.43551064 0.20789124 0.66499734 1.1706515e-38
0.43327597 0.21116614 0.66470158 3.7811671e-39
0.4312354 0.21523587 0.66408712 2.8599577e-39
0.43212491 0.21303035 0.6653024 2.9517932e-39
0.43022442 0.21803816 0.66491145 2.8599577e-39
0.42854851 0.22137794 0.66322643 3.0443531e-39
0.42927641 0.22053637 0.6647172 2.8599577e-39
0.42794478 0.22324321 0.66427213 2.9521561e-39
0.42676181 0.22625336 0.66467553 3.6889799e-39
0.42555061 0.22971445 0.66568184 7.7440279e-39
0.42924893 0.23562862 0.66476464 6.2689273e-39
0.43183392 0.23789823 0.66305763 6.4533213e-39
0.43390054 0.23939314 0.6650039 6.0841787e-39
0.43650234 0.24168044 0.66331112 6.7299012e-39
0.4395265 0.24367738 0.66366583 7.4670865e-39
0.44256556 0.24568419 0.66402239 9.0336471e-39
0.45234913 0.19140598 0.66687071 1.1706515e-38
0.4560467 0.19167459 0.66896462 1.3551878e-38
0.44816142 0.19347319 0.66831952 1.1706515e-38
0.45025003 0.19244219 0.66759694 1.1706515e-38
0.44315225 0.19702347 0.66848129 1.1706515e-38
0.44452536 0.19572592 0.66890991 1.1706515e-38
0.44024318 0.20098989 0.66791135 1.1706515e-38
0.44148421 0.19929934 0.66764498 1.1706515e-38
0.42741889 0.20183878 0.66600913 9.2237613e-39
0.43881872 0.20297675 0.66758466 1.1706515e-38
0.43685222 0.20583063 0.66727084 1.1706515e-38
0.43484002 0.20882025 0.6675002 1.0969331e-38
0.43566066 0.20752253 0.66747195 1.1706515e-38
0.43320316 0.21140876 0.66755909 3.6889743e-39
0.43163323 0.21457408 0.66705519 2.8599577e-39
0.4306241 0.2173706 0.66787386 2.8599577e-39
0.42952424 0.22018602 0.66703022 2.8599577e-39
0.42827621 0.22348641 0.66735619 3.3205617e-39
0.43430045 0.2229412 0.66849881 1.0602497e-38
0.42683095 0.22675884 0.66757184 4.6105438e-39
0.425583 0.22995283 0.66836631 7.9280478e-39
0.42627031 0.22886933 0.66717505 4.4265155e-39
0.42527214 0.23147228 0.66753608 9.49497e-39
0.426772 0.23342179 0.66630548 6.4533185e-39
0.42910457 0.23504989 0.66775203 6.2689287e-39
0.43153572 0.23723546 0.66631186 5.9005105e-39
0.43396622 0.23891737 0.66762328 5.992346e-39
0.4363417 0.241083 0.66631836 5.9923432e-39
0.43914253 0.24296117 0.66704035 7.0983082e-39
0.44184721 0.24479079 0.66794395 8.2042676e-39
0.44455743 0.24662475 0.6688568 1.0323984e-38
0.4524073 0.19104208 0.66947347 1.1614703e-38
0.45395309 0.19125345 0.66965723 1.3551519e-38
0.4461858 0.19434188 0.67021775 1.1706515e-38
0.44831818 0.19314222 0.67075896 1.1706515e-38
0.45035785 0.1920947 0.67011768 1.1706515e-38
0.44330329 0.19668129 0.67093301 1.1706515e-38
0.44459087 0.19535246 0.67149991 1.1706515e-38
0.44043416 0.20065522 0.6703012 1.1706515e-38
0.44185719 0.19866544 0.67063344 1.1706515e-38
0.43916687 0.20232451 0.67061496 1.1706515e-38
0.43722144 0.20517951 0.67026955 1.1706515e-38
0.43428433 0.20979357 0.66980326 7.0986711e-39
0.43557534 0.20777139 0.67033291 1.1706515e-38
0.43311951 0.21164629 0.67042112 3.4123972e-39
0.43109465 0.21482819 0.67069912 3.4127545e-39
0.42940682 0.21894726 0.6699596 4.5187097e-39
0.42724735 0.223382 0.67094648 4.7949281e-39
0.42649448 0.22610763 0.67088163 4.7027352e-39
0.42571488 0.23024017 0.67086649 9.9555698e-39
0.42604434 0.22826625 0.67029756 7.0064797e-39
0.42642123 0.23274162 0.66964686 6.7298928e-39
0.42856711 0.23427205 0.67139828 6.3614802e-39
0.43125528 0.23658499 0.66951901 6.0849032e-39
0.43343127 0.23813356 0.67124814 6.2692944e-39
0.43614507 0.24046966 0.66937149 6.2692916e-39
0.43836153 0.24204195 0.67106217 6.9142869e-39
0.44104695 0.2438589 0.6719799 7.6514736e-39
0.45134449 0.19170421 0.67387921 1.3457857e-38
0.44686866 0.1940214 0.67313135 1.1706515e-38
0.44800949 0.19335449 0.67394686 1.1706515e-38
0.45455229 0.19217737 0.67404783 1.1893093e-38
0.45678663 0.19265585 0.67313486 1.1984927e-38
0.45903355 0.19313702 0.67221665 1.2628841e-38
0.44294089 0.19705564 0.67287874 1.1706515e-38
0.44546822 0.19510892 0.6740849 1.1706515e-38
0.44050872 0.20027336 0.67287433 1.1706515e-38
0.441486 0.19882707 0.67394167 1.1706515e-38
0.43880656 0.20271344 0.67391366 1.1706515e-38
0.43686685 0.20578501 0.67289138 1.1706515e-38
0.43465266 0.20930147 0.67323899 1.023179e-38
0.43547034 0.20801136 0.67321306 1.1706515e-38
0.43327913 0.21144034 0.67330784 4.9793151e-39
0.43094662 0.21478529 0.67365819 4.7949295e-39
0.43211913 0.2131186 0.67347074 4.3339667e-39
0.46246395 0.21414962 0.67254752 7.1912395e-39
0.42862743 0.21811481 0.67400438 5.163342e-39
0.4295021 0.2168714 0.67386305 5.163342e-39
0.42787662 0.22036019 0.67258137 5.2555349e-39
0.42720249 0.22359808 0.67373639 6.4536801e-39
0.4265371 0.22707081 0.67352271 9.0340002e-39
0.42587012 0.23053886 0.67331523 1.1706517e-38
0.42607981 0.22922108 0.67295456 1.0968973e-38
0.42598015 0.23201858 0.67312586 6.6376958e-39
0.43073982 0.23581667 0.67310935 6.1771016e-39
0.43561673 0.2396875 0.67296702 6.4536857e-39
0.43780452 0.24124309 0.6746878 7.0064881e-39
0.44374347 0.24568306 0.67289746 9.5868027e-39
0.44570988 0.1946121 0.67769653 1.1706515e-38
0.44890863 0.19259368 0.67515671 1.1706515e-38
0.44272026 0.19728467 0.67592287 1.1706515e-38
0.44421601 0.19604984 0.67613792 1.1706515e-38
0.44070476 0.19973916 0.67657232 1.1706515e-38
0.44155818 0.19844994 0.67650139 1.1706515e-38
0.43907177 0.20233953 0.67660183 1.1706515e-38
0.43717453 0.20536514 0.67663175 1.1706515e-38
0.43436623 0.20995048 0.67775249 1.1522129e-38
0.43555406 0.2079498 0.67665714 1.1706156e-38
0.43312043 0.21172312 0.67649245 9.7715429e-39
0.43115312 0.2145931 0.67645252 9.67935e-39
0.42862046 0.21836254 0.67671287 1.0048121e-38
0.42995143 0.21639785 0.6771425 1.0509443e-38
0.42734036 0.22034685 0.67620116 8.9428822e-39
0.42630571 0.22268716 0.67796713 7.7501124e-39
0.4262577 0.2295329 0.6753552 1.1522502e-38
0.42696232 0.23248896 0.67550027 7.0068384e-39
0.43077058 0.23579618 0.6771006 6.6380741e-39
0.43964523 0.24261881 0.67698908 7.5596479e-39
0.44544315 0.19411175 0.68078607 1.1706515e-38
0.44774219 0.19266406 0.67838192 1.1706515e-38
0.45094204 0.19242124 0.67852271 1.4563829e-38
0.44272152 0.19740093 0.67991936 1.1706515e-38
0.44425708 0.19546945 0.68006539 1.1706515e-38
0.44031069 0.20060086 0.67988914 1.1706515e-38
0.44153887 0.19875467 0.67920029 1.1706515e-38
0.43897241 0.20259905 0.67943597 1.1706515e-38
0.4373517 0.2051865 0.67945492 1.1706515e-38
0.43469459 0.20966166 0.67987573 1.1706515e-38
0.43572286 0.20792657 0.67993957 1.1706515e-38
0.43333271 0.21162531 0.67948318 1.0694903e-38
0.4314003 0.21442063 0.67916328 7.8440961e-39
0.42862594 0.21861613 0.67938757 8.1203172e-39
0.42970148 0.21692543 0.67935246 7.1087044e-39
0.42756948 0.22031105 0.67939311 4.0745878e-39
0.42627314 0.22314471 0.67936385 7.1079912e-39
0.42586532 0.22601402 0.67871881 9.6825898e-39
0.42564902 0.2287389 0.679088 8.9432816e-39
0.42664117 0.23087651 0.68007827 7.7444189e-39
0.426734 0.23187789 0.67857993 7.4678334e-39
0.44282317 0.24489917 0.67975342 8.9418186e-39
0.44622928 0.19331324 0.68215644 1.1706515e-38
0.44737351 0.19265839 0.68294716 1.2812487e-38
0.4434264 0.19691594 0.68230158 1.1706515e-38
0.44472933 0.19526422 0.68194556 1.1706515e-38
0.44090879 0.2002372 0.6828863 1.1706515e-38
0.4418368 0.19898821 0.68269014 1.1706515e-38
0.43919733 0.20244844 0.68216425 1.1706515e-38
0.43707767 0.20590533 0.68212432 1.1706515e-38
0.43810833 0.20416664 0.68219119 1.1706515e-38
0.4354828 0.20865032 0.68255484 1.1706515e-38
0.43354848 0.21152872 0.6824522 1.0235373e-38
0.43101034 0.21521242 0.68248576 6.0974518e-39
0.43228203 0.2132829 0.68124264 6.0056191e-39
0.42895281 0.21831223 0.68150759 8.21251e-39
0.42960963 0.21745721 0.68306458 4.0749465e-39
0.42754471 0.22070101 0.68255293 3.6150586e-39
0.42548281 0.22393362 0.6820479 1.0419042e-38
0.42616767 0.2230923 0.68355137 8.9479017e-39
0.42520574 0.22662076 0.6825189 7.7436762e-39
0.42651781 0.22954595 0.68206924 7.4674691e-39
0.4280262 0.23265083 0.68218279 7.6522233e-39
0.42947412 0.23509251 0.68329245 7.6522233e-39
0.43215609 0.23739488 0.68145359 7.0990523e-39
0.44991368 0.19144298 0.68413168 1.2812487e-38
0.45158339 0.19079682 0.6854046 1.2351524e-38
0.45313138 0.19010405 0.68687189 1.1890921e-38
0.44599861 0.19462758 0.6851632 1.2535904e-38
0.44827247 0.19315128 0.68544698 1.2812487e-38
0.44323516 0.19732773 0.68568766 1.1706515e-38
0.44458494 0.19604798 0.6861313 1.2259321e-38
0.44173738 0.19925743 0.68549156 1.1706515e-38
0.43939871 0.20245743 0.68535793 1.1706515e-38
0.43730226 0.20591396 0.68528175 1.1706515e-38
0.4357433 0.20850082 0.68521166 1.1706515e-38
0.43370479 0.21140732 0.68550408 1.0603068e-38
0.43139872 0.21455866 0.68537384 5.7297567e-39
0.42964128 0.2170179 0.68566477 4.2586147e-39
0.42784196 0.22061728 0.6853736 4.1667806e-39
0.42560518 0.22422643 0.68450427 1.1154793e-38
0.42632645 0.22340415 0.68593913 1.0143181e-38
0.425273 0.2261754 0.68506682 9.4946084e-39
0.42670691 0.22923088 0.68529725 6.9142855e-39
0.42844057 0.23244339 0.6850298 6.8221011e-39
0.42977548 0.23475206 0.68543988 6.7295467e-39
0.43284541 0.23817053 0.68560952 6.3611285e-39
0.45141208 0.19107151 0.68828928 1.1982739e-38
0.45424837 0.18996707 0.68901896 1.1799086e-38
0.44862723 0.1930698 0.68880516 1.1706515e-38
0.44501582 0.19654201 0.68805861 1.2812487e-38
0.44066757 0.20074797 0.68854356 1.1706515e-38
0.44229785 0.19888419 0.68851852 1.1982739e-38
0.43955401 0.20244868 0.68860769 1.1706515e-38
0.43700847 0.20640606 0.68927026 1.1706515e-38
0.4382242 0.20459513 0.68859184 1.1706515e-38
0.43475366 0.20980945 0.68772388 1.1706515e-38
0.43612915 0.20786324 0.68808842 1.1706515e-38
0.43338796 0.21153575 0.68866372 1.0419042e-38
0.43148512 0.21415323 0.68787014 5.6379226e-39
0.43201691 0.21324974 0.68961799 5.8219495e-39
0.42862052 0.21865295 0.687374 6.465507e-39
0.42961448 0.21655317 0.68835032 4.1664219e-39
0.42760536 0.22027908 0.68907392 3.3391961e-39
0.42637664 0.22295959 0.68849909 9.2237613e-39
0.42515036 0.225637 0.68792367 1.106155e-38
0.42694634 0.23003235 0.68886042 6.5454974e-39
0.42861557 0.23274744 0.68738228 5.9923418e-39
0.42925519 0.2339927 0.68894964 5.6235621e-39
0.43041605 0.23599927 0.68701315 6.1760142e-39
0.43490726 0.23965511 0.68747056 5.9923474e-39
0.43697029 0.24114054 0.68933278 5.9001476e-39
0.44447637 0.24587412 0.68761778 9.7711869e-39
0.47226697 0.18217412 0.69169778 1.1890906e-38
0.45138657 0.19157517 0.69136447 1.1982739e-38
0.45431682 0.19033641 0.69150877 1.1890554e-38
0.44650495 0.19401845 0.69218713 1.1706515e-38
0.44837338 0.19294408 0.69180989 1.1982739e-38
0.44306147 0.19768652 0.69250292 1.1706515e-38
0.44507799 0.19617301 0.69056791 1.1706515e-38
0.44097233 0.2004689 0.69066358 1.2812487e-38
0.44211334 0.19911803 0.69142723 1.1706515e-38
0.43962219 0.20223477 0.69154632 1.1706515e-38
0.43700415 0.20598261 0.69189179 1.1706515e-38
0.4382965 0.20400134 0.69239521 1.1706515e-38
0.43482646 0.20919594 0.69153523 1.1706515e-38
0.43570483 0.20795836 0.69140393 1.1706515e-38
0.43301669 0.21170872 0.6914618 9.4077896e-39
0.43048844 0.21504074 0.69127512 5.6379226e-39
0.42849678 0.21813847 0.69021481 7.1090646e-39
0.42923874 0.21663077 0.69160324 2.9715024e-39
0.42718792 0.22047381 0.69152433 4.7185026e-39
0.42553112 0.22386999 0.69167203 1.0970764e-38
0.42483675 0.22640827 0.6910876 9.6793682e-39
0.42562616 0.22842526 0.69238818 7.7436524e-39
0.42815536 0.23248336 0.69209504 5.9001448e-39
0.43043575 0.2359719 0.69092655 5.4391736e-39
0.43938679 0.24281016 0.69062412 6.9139197e-39
0.44733685 0.24727088 0.69086111 1.1429579e-38
0.45180267 0.19170943 0.69415843 1.1706515e-38
0.45413092 0.1906091 0.6943807 1.1706515e-38
0.44500041 0.19484124 0.69458532 1.1982739e-38
0.4486357 0.19313873 0.69398552 1.1890544e-38
0.44263077 0.19711308 0.69578445 1.1706515e-38
0.44400942 0.19625515 0.69357848 1.1706515e-38
0.44079626 0.19999009 0.69355071 1.1706515e-38
0.44171363 0.19855142 0.6946677 1.1706515e-38
0.43904781 0.20235622 0.69464332 1.1706515e-38
0.43691248 0.2055231 0.69464338 1.1706515e-38
0.43431813 0.20924523 0.69497395 1.1706515e-38
0.43563896 0.20750418 0.6941179 1.1706515e-38
0.43254334 0.21190745 0.69397986 1.0419042e-38
0.4306753 0.2143003 0.69445014 6.6491752e-39
0.42813706 0.21783094 0.69430351 6.1896446e-39
0.42931908 0.21621941 0.69408429 3.1551706e-39
0.42673513 0.22057332 0.69445944 4.8103381e-39
0.42548218 0.22298884 0.69524372 1.014318e-38
0.42437738 0.22570421 0.69447929 1.0416549e-38
0.42663279 0.23030964 0.69463015 6.8220786e-39
0.41167897 0.23639126 0.69383854 8.7574148e-39
0.42948404 0.23498954 0.69511402 5.900149e-39
0.43302482 0.23818175 0.69318885 5.4391778e-39
0.43524784 0.23974714 0.69475567 5.2551467e-39
0.44128764 0.24370854 0.69535184 7.5592765e-39
0.44522151 0.19363774 0.69810176 1.1706515e-38
0.44296622 0.19614634 0.69782782 1.1706515e-38
0.44010937 0.20000604 0.69724423 1.1706515e-38
0.44145215 0.19804443 0.69767028 1.1706515e-38
0.43846545 0.20254123 0.69730824 1.1706515e-38
0.43680671 0.20505957 0.69740468 1.1706515e-38
0.43419233 0.2087616 0.69777071 1.1706515e-38
0.4355365 0.20703602 0.69687843 1.1706515e-38
0.43187022 0.21186838 0.69768035 1.1706515e-38
0.43281424 0.21067804 0.6974293 1.1706515e-38
0.43006039 0.21442109 0.69719619 7.8444534e-39
0.42790315 0.21742669 0.69772643 5.5457298e-39
0.42542219 0.22179921 0.69794571 8.3043427e-39
0.4264532 0.21997897 0.6975314 4.1667806e-39
0.42435062 0.22452326 0.69713128 1.1430319e-38
0.42456222 0.22679108 0.69764429 1.0231787e-38
0.43440121 0.22611225 0.69834238 9.9573789e-39
0.4254095 0.22875446 0.69796681 7.9280366e-39
0.42791599 0.23278782 0.69770497 5.9005021e-39
0.43161041 0.23695666 0.69810569 5.2555082e-39
0.43763548 0.24139857 0.69606352 5.716115e-39
0.45341209 0.18958649 0.70062625 1.2074933e-38
0.44509971 0.19320437 0.70085883 1.1705797e-38
0.45160368 0.1921867 0.70026636 1.1890903e-38
0.44229141 0.19631593 0.70061523 1.1706156e-38
0.43991321 0.19952175 0.70013261 1.1706515e-38
0.43781728 0.20255986 0.70092553 1.1706515e-38
0.43873101 0.20154187 0.699458 1.1706515e-38
0.43623832 0.20523798 0.70004231 1.1706515e-38
0.43355438 0.20882171 0.70095664 1.1706515e-38
0.43128502 0.2120838 0.69992912 1.1706515e-38
0.42944959 0.21446928 0.70035398 8.21251e-39
0.42746115 0.21753824 0.70061225 5.9137836e-39
0.42549771 0.22067958 0.70041066 6.0056177e-39
0.42426348 0.22331707 0.6998713 1.11548e-38
0.42461944 0.22603598 0.70057333 1.0968969e-38
0.4255029 0.22832443 0.70040202 8.941799e-39
0.42612153 0.22978738 0.70066935 6.9139071e-39
0.42673671 0.2312489 0.70094585 5.4395296e-39
0.42886615 0.23463677 0.70002151 5.4395296e-39
0.43389279 0.23855001 0.69954854 5.0707568e-39
0.43611979 0.2401154 0.70108986 4.8867257e-39
0.44012356 0.24260339 0.69979602 6.7298886e-39
0.44360274 0.24482271 0.69938558 9.034003e-39
0.44672221 0.19115102 0.70213544 1.170544e-38
0.44838735 0.18981993 0.70334864 1.2075685e-38
0.4548403 0.18939003 0.70350736 1.2074933e-38
0.44331431 0.19480112 0.70240259 1.1702215e-38
0.44486994 0.19273013 0.7037726 1.169899e-38
0.44150975 0.19637585 0.70398474 1.1696841e-38
0.43986145 0.19873337 0.70362711 1.1698632e-38
0.43729082 0.20283216 0.70305085 1.1701141e-38
0.43854523 0.20105758 0.70232135 1.1704365e-38
0.43566135 0.20534199 0.70310962 1.1700782e-38
0.4334352 0.20834398 0.70371479 1.1704006e-38
0.43102142 0.21168941 0.70335817 1.1706156e-38
0.42859441 0.21502122 0.70432454 1.10626e-38
0.42939901 0.21400538 0.70301008 1.0786737e-38
0.42715827 0.21740943 0.70368314 1.0050987e-38
0.42519736 0.22076909 0.70348459 8.9479003e-39
0.42601526 0.21932469 0.70470554 1.1614322e-38
0.43058616 0.22161768 0.70354253 9.0336415e-39
0.42403612 0.22274126 0.70283031 1.0969691e-38
0.41072696 0.22709207 0.70476407 1.1706156e-38
0.42499098 0.22636545 0.7029677 1.0047756e-38
0.42597067 0.22899538 0.70477879 7.4670683e-39
0.42689574 0.23084901 0.70325887 5.2547782e-39
0.42778111 0.23314136 0.70308989 4.3331904e-39
0.43012863 0.23570246 0.70310295 5.2551383e-39
0.43216515 0.23716614 0.704916 4.6101388e-39
0.44576195 0.19110194 0.70618248 1.1701498e-38
0.44965643 0.18975087 0.70518094 1.2075335e-38
0.4509244 0.18968186 0.70701146 1.1891672e-38
0.45590943 0.189243 0.70566386 1.2074933e-38
0.45670396 0.18917653 0.70697296 1.1615841e-38
0.44302934 0.19429937 0.70539922 1.1691467e-38
0.44406325 0.19292277 0.70631039 1.1691826e-38
0.44015914 0.19772892 0.70739406 1.1687168e-38
0.4415262 0.19599156 0.70650125 1.1688243e-38
0.43865252 0.19996415 0.70639938 1.1689318e-38
0.43696311 0.20244859 0.70654899 1.1688959e-38
0.43405479 0.20652367 0.70696831 1.1694333e-38
0.43543661 0.20482939 0.70602328 1.1690393e-38
0.43279195 0.20847185 0.70645481 1.1704006e-38
0.43064427 0.21154797 0.70652837 1.1705797e-38
0.42831802 0.21536465 0.70605516 1.1705799e-38
0.42908823 0.21389759 0.707353 1.1706156e-38
0.42736897 0.21737427 0.70675188 1.1705797e-38
0.42537612 0.22109136 0.70575559 1.170544e-38
0.42631152 0.2197054 0.70677876 1.1705797e-38
0.42427176 0.22354487 0.70629138 1.1613966e-38
0.42485559 0.22705291 0.7066108 8.4808363e-39
0.42633605 0.23008735 0.70673859 6.545496e-39
0.42753896 0.23253457 0.70604867 5.439531e-39
0.46410713 0.2479884 0.70735687 7.2826826e-39
0.44594368 0.19043763 0.70926839 1.1888396e-38
0.44775957 0.19005513 0.71064317 1.2904322e-38
0.45219517 0.18961433 0.70883501 1.2904322e-38
0.45364851 0.18961704 0.71037656 1.2903963e-38
0.4429501 0.19368988 0.70932096 1.1687526e-38
0.44024229 0.19736958 0.70979184 1.1685735e-38
0.44117582 0.19615926 0.70958257 1.1686094e-38
0.43911281 0.19902611 0.70989102 1.1685735e-38
0.43671766 0.20240112 0.70947701 1.1685735e-38
0.43452695 0.20561793 0.70875067 1.16886e-38
0.43510276 0.204761 0.71036208 1.1685735e-38
0.43176997 0.2096727 0.71063793 1.1706156e-38
0.43306819 0.20780124 0.70939755 1.1701139e-38
0.43057168 0.2113944 0.70940048 1.1706156e-38
0.42838252 0.21495371 0.70849955 1.1706515e-38
0.42906308 0.21344927 0.7099359 1.1706515e-38
0.42707399 0.21724884 0.70977896 1.1706515e-38
0.42553583 0.2206396 0.70974416 1.1706515e-38
0.41775587 0.22338654 0.70835376 1.5111251e-38
0.42449316 0.22364871 0.70975494 1.15225e-38
0.42421341 0.22580807 0.70894039 9.40241e-39
0.42547679 0.2282729 0.70814502 7.4670697e-39
0.42612094 0.22950311 0.7096377 7.1904926e-39
0.42735431 0.23195982 0.70889926 5.439531e-39
0.42855811 0.23440842 0.70821428 5.0711156e-39
0.43254721 0.2377751 0.70938963 5.3473423e-39
0.43578494 0.23985964 0.70927471 5.4395366e-39
0.43846244 0.24165614 0.7100783 6.3611187e-39
0.45541954 0.25791189 0.70985305 1.8988424e-38
0.44474277 0.19135298 0.71280956 1.1699707e-38
0.44920221 0.19005698 0.7121793 1.2719934e-38
0.45058435 0.19003546 0.71380818 1.2627739e-38
0.45510191 0.18961975 0.71191823 1.2903963e-38
0.45655528 0.18962246 0.71345997 1.2903963e-38
0.44303897 0.19359669 0.71232712 1.1687884e-38
0.44071731 0.19697772 0.71281928 1.1685735e-38
0.44157428 0.19573882 0.71273309 1.1685735e-38
0.43783307 0.20094517 0.71107399 1.1685735e-38
0.43900669 0.19944727 0.71299601 1.1685735e-38
0.43656051 0.20285571 0.7122485 1.1685735e-38
0.43428695 0.20611697 0.71250206 1.1689677e-38
0.4354189 0.20448703 0.7123813 1.1685735e-38
0.43196952 0.20933817 0.71284264 1.1706156e-38
0.43289456 0.20815793 0.71262276 1.1704006e-38
0.43081269 0.21094114 0.71301574 1.1706515e-38
0.42804599 0.21467119 0.71242404 1.1706515e-38
0.42920583 0.21308047 0.71223623 1.1706515e-38
0.42648569 0.2172883 0.71284437 1.1706515e-38
0.42561218 0.22052954 0.71299964 1.1706515e-38
0.42483488 0.22335571 0.71173477 1.161433e-38
0.42492601 0.22691123 0.71242958 1.0416533e-38
0.42598075 0.22895925 0.71240091 8.1120706e-39
0.42684007 0.23053238 0.7122696 6.6376986e-39
0.42823401 0.23313935 0.71212047 5.9005091e-39
0.43045506 0.2357737 0.71275049 5.8086764e-39
0.44035184 0.24304461 0.71213788 7.3748937e-39
0.44578481 0.19094841 0.71569371 1.3547891e-38
0.45192942 0.18999985 0.71549231 1.2535545e-38
0.44351378 0.19376546 0.71554899 1.3251246e-38
0.44420415 0.19285874 0.71614242 1.1692184e-38
0.44040662 0.19785064 0.71580845 1.3986291e-38
0.44188279 0.19598044 0.71600372 1.2789916e-38
0.43893495 0.19988103 0.71602947 1.177757e-38
0.43703628 0.20253262 0.71547061 1.1685735e-38
0.43427113 0.20654924 0.71545696 1.1690751e-38
0.43543097 0.20477436 0.71487415 1.1685735e-38
0.43287221 0.20857887 0.7155903 1.1703648e-38
0.43055934 0.21164975 0.71560085 1.1706515e-38
0.42832708 0.21467774 0.71533054 1.1706515e-38
0.42947978 0.21371683 0.7168262 1.1706515e-38
0.4268012 0.2175312 0.71569401 1.1706515e-38
0.42548662 0.22070274 0.71572357 1.1706515e-38
0.42485309 0.22321032 0.71507162 1.1706516e-38
0.42508721 0.22591265 0.71553159 1.023179e-38
0.42710799 0.22927114 0.71561825 7.1905178e-39
0.42843455 0.2317656 0.71473849 6.8217451e-39
0.43011975 0.23293936 0.71580184 7.1901493e-39
0.43138391 0.23506626 0.71503592 7.0064937e-39
0.43286431 0.23672301 0.71518528 7.0064895e-39
0.43443888 0.23843074 0.71519148 7.1905024e-39
0.43748522 0.2406584 0.71413714 7.190857e-39
0.43997288 0.24235524 0.71523798 8.4808433e-39
0.44324899 0.24446274 0.71512878 9.6786368e-39
0.42166361 0.25500178 0.71513695 6.1767274e-39
0.44664359 0.19167548 0.71735752 1.6403045e-38
0.4485136 0.19114947 0.71821558 1.6405196e-38
0.4506743 0.19107695 0.71946377 1.6405553e-38
0.45404276 0.18989193 0.71848899 1.2443351e-38
0.44563729 0.19355866 0.71766257 1.6383699e-38
0.44772121 0.19346105 0.71901321 1.4821055e-38
0.45899016 0.19209146 0.71848273 1.7328569e-38
0.44269818 0.19670561 0.718472 1.2789916e-38
0.44495705 0.1953769 0.71870816 1.398665e-38
0.44023073 0.1994665 0.71857357 1.214599e-38
0.43729323 0.20317653 0.71818602 1.196196e-38
0.43871903 0.20170127 0.71885777 1.196196e-38
0.43498987 0.20624433 0.71807003 1.1963035e-38
0.43609115 0.20527893 0.71882707 1.1869765e-38
0.4334496 0.20866632 0.71842462 1.1978081e-38
0.43117878 0.21194704 0.71828318 1.1890903e-38
0.4324438 0.21103778 0.71959984 1.225968e-38
0.4297927 0.2145261 0.71882617 1.1890544e-38
0.42777634 0.21748468 0.71855319 1.1798709e-38
0.42570627 0.22035757 0.7178781 1.1706515e-38
0.42635155 0.22021921 0.71934026 1.1890544e-38
0.42489153 0.22349235 0.7185657 1.1337739e-38
0.42596978 0.2266451 0.71745324 7.0979158e-39
0.426741 0.22656471 0.71871483 1.0231417e-38
0.42816535 0.22909766 0.71768045 8.019491e-39
0.43064272 0.23396915 0.71996582 1.1153353e-38
0.43441606 0.23769172 0.71897435 1.0416164e-38
0.43717301 0.2397652 0.71837455 1.0047034e-38
0.44031504 0.24179748 0.7184425 1.0139584e-38
0.44347137 0.24383959 0.7185176 1.0876775e-38
0.44625235 0.24593602 0.71795821 1.1706157e-38
0.44705296 0.24585809 0.71920919 1.179835e-38
0.43012404 0.19057193 0.72175854 1.1687526e-38
0.45177421 0.19147639 0.72108775 1.3272026e-38
0.4544878 0.19091557 0.7215181 2.0278067e-38
0.44871074 0.19345777 0.72162056 1.1694333e-38
0.45203108 0.19313133 0.72275001 2.0278425e-38
0.4542892 0.19264568 0.72222447 2.0278425e-38
0.45746633 0.19343144 0.72198206 2.0094037e-38
0.45991439 0.19452675 0.72202742 1.9725619e-38
0.44324565 0.19746083 0.72134054 1.214599e-38
0.4453097 0.19564022 0.72187591 1.1778645e-38
0.45599139 0.19514869 0.72295082 2.0278425e-38
0.45773125 0.19545595 0.72281247 2.0278425e-38
0.46035361 0.19591904 0.72260398 2.0278425e-38
0.46273902 0.19641165 0.72194481 1.9908574e-38
0.4657079 0.1970668 0.7208581 1.972526e-38
0.44203204 0.19917345 0.72148103 1.214599e-38
0.46466517 0.19807607 0.7223829 1.9724185e-38
0.46695566 0.19859435 0.72148514 1.9725619e-38
0.46877044 0.20034604 0.72129208 2.0923785e-38
0.43958268 0.20253885 0.72152764 1.2514049e-38
0.44142812 0.20105724 0.72290558 1.5366338e-38
0.4698 0.2023931 0.72143126 2.0923426e-38
0.47270763 0.20398334 0.72049004 2.0923428e-38
0.4371399 0.20562804 0.72132236 1.2053796e-38
0.43841475 0.20540759 0.72263408 1.5182308e-38
0.46980542 0.20463593 0.72223586 2.0923426e-38
0.47213405 0.20589331 0.72131652 2.0923069e-38
0.47460204 0.20577915 0.72021151 2.0831617e-38
0.43429974 0.20933582 0.72081417 1.2256454e-38
0.43595371 0.20806892 0.72193718 1.3625754e-38
0.47291806 0.20856255 0.72181749 2.0831238e-38
0.47421712 0.20705421 0.72076416 2.083161e-38
0.43312916 0.21166325 0.72149843 1.2720292e-38
0.47306615 0.21086663 0.7224164 2.0923428e-38
0.43081078 0.21485297 0.72119099 1.244371e-38
0.43218383 0.21392384 0.72249246 1.3734429e-38
0.42865899 0.21769512 0.72063339 1.2074933e-38
0.42982578 0.21743087 0.72209072 1.3457846e-38
0.42575318 0.22197877 0.72030133 1.41954e-38
0.4276267 0.22074734 0.72156918 1.3826623e-38
0.42907506 0.21950175 0.7224552 1.41954e-38
0.42557439 0.22393848 0.72058851 1.2720294e-38
0.42699668 0.22395179 0.72204256 1.4195041e-38
0.4533591 0.22290806 0.72109866 2.0278784e-38
0.42728859 0.22682622 0.72157592 1.3365652e-38
0.42862651 0.22999617 0.72068512 1.1429575e-38
0.42928869 0.23054361 0.72211599 1.1429936e-38
0.43054366 0.23299554 0.72136629 1.225968e-38
0.43210578 0.23376234 0.7226156 1.2167137e-38
0.4330903 0.235636 0.72106409 1.2812129e-38
0.43508315 0.23569705 0.72288674 1.4932255e-38
0.43610147 0.23759265 0.72129387 1.2167489e-38
0.43901339 0.23915584 0.7217046 1.2996882e-38
0.44229922 0.24160278 0.7215628 1.1982747e-38
0.44546232 0.24364443 0.72164136 1.1429936e-38
0.44805989 0.19440305 0.72383767 2.0278425e-38
0.45166907 0.19438539 0.7232945 2.0278425e-38
0.45425755 0.1948425 0.72308868 2.0278425e-38
0.44571632 0.19687234 0.72420645 1.5563982e-38
0.44882321 0.19673114 0.72488749 1.9449042e-38
0.45139563 0.19607411 0.72411346 1.9909649e-38
0.45448768 0.19684301 0.72397017 1.9725619e-38
0.45711863 0.19731936 0.72372198 1.9725619e-38
0.45998168 0.19718088 0.723153 2.0278067e-38
0.44324854 0.19984344 0.72380006 1.5366338e-38
0.44523725 0.19917138 0.72493583 1.6852193e-38
0.44812211 0.19943535 0.72578359 1.9264648e-38
0.45172364 0.19821101 0.72565955 1.9264652e-38
0.45431572 0.19868085 0.72544742 1.9173192e-38
0.457881 0.19934532 0.72503585 1.9356842e-38
0.46050367 0.19941539 0.7244184 1.9263214e-38
0.46319103 0.19950491 0.72372657 2.0092961e-38
0.46563834 0.20020065 0.72340447 2.0094396e-38
0.44091207 0.20360258 0.72370076 1.5366338e-38
0.44250709 0.20238337 0.72441024 1.5366338e-38
0.44442078 0.20181754 0.72568893 1.5366338e-38
0.46090418 0.20119485 0.72545385 2.0738322e-38
0.46374246 0.20246053 0.7249524 2.0647202e-38
0.46700388 0.20318981 0.72385645 2.0739397e-38
0.43995699 0.20546468 0.72394347 1.5182308e-38
0.44189718 0.20532764 0.72546244 1.5182308e-38
0.46412754 0.20453708 0.72560579 2.0555367e-38
0.46644774 0.2059 0.72547525 2.0555367e-38
0.46917742 0.20580307 0.72314417 2.0923426e-38
0.43728444 0.20880325 0.72377354 1.5098711e-38
0.43917763 0.20857008 0.72514677 1.564901e-38
0.44101632 0.20738132 0.72599638 1.5182308e-38
0.47084081 0.20892711 0.72317994 2.0830875e-38
0.48298693 0.20865011 0.72494447 1.5761986e-38
0.43480021 0.21151955 0.72332931 1.5116625e-38
0.43665105 0.21173152 0.72488087 1.5854179e-38
0.43808681 0.21104683 0.72560418 1.825087e-38
0.47186017 0.21250108 0.72414768 2.0002585e-38
0.43172848 0.21576872 0.72321016 1.41954e-38
0.43372777 0.21477811 0.72430277 1.5209178e-38
0.43579137 0.21407773 0.72547925 1.7052704e-38
0.46906793 0.21457222 0.72573447 2.0831591e-38
0.47167456 0.2145561 0.72441411 2.0831591e-38
0.4309822 0.21784593 0.72356302 1.41954e-38
0.43284667 0.21769053 0.72515512 1.5301372e-38
0.46972027 0.21768489 0.72479451 2.0831591e-38
0.47200358 0.21611694 0.7239418 2.0831591e-38
0.42855865 0.22198561 0.7232753 1.41954e-38
0.43060935 0.22059551 0.72466588 1.4471624e-38
0.46760413 0.22001795 0.72541958 2.0739755e-38
0.4284324 0.22397162 0.72347581 1.4195041e-38
0.4302035 0.22415516 0.72512102 1.5209178e-38
0.43467987 0.22405784 0.72598052 1.9633425e-38
0.43624961 0.22436331 0.7259956 1.7974287e-38
0.46577948 0.22316971 0.72563374 2.0370978e-38
0.42857659 0.22677237 0.72324681 1.4195041e-38
0.43037719 0.22669752 0.72484732 1.5209178e-38
0.43374634 0.22643185 0.72547185 1.889623e-38
0.46420401 0.22571506 0.72549433 2.0370978e-38
0.42868483 0.22887415 0.72307497 1.4195041e-38
0.43024737 0.22964016 0.72431123 1.649918e-38
0.43366754 0.22961128 0.7254101 1.7974287e-38
0.46107203 0.23078786 0.72520757 2.0370978e-38
0.46291944 0.22909036 0.72493613 2.0370978e-38
0.43073881 0.23193735 0.72353488 1.3181275e-38
0.43319675 0.23277085 0.72419548 1.5577606e-38
0.43595859 0.2326833 0.72521961 1.6222958e-38
0.43801254 0.23300795 0.72571915 1.6315153e-38
0.45894742 0.23164311 0.72589707 2.0647202e-38
0.46057439 0.23288687 0.72472191 2.0370978e-38
0.43449593 0.23402596 0.72380543 1.5116642e-38
0.43684351 0.2351898 0.72384316 1.511664e-38
0.4394432 0.23555437 0.72473693 1.4840407e-38
0.44139278 0.236515 0.72541845 1.4840402e-38
0.46007395 0.23498683 0.7242372 2.0370978e-38
0.44016147 0.23798552 0.72362798 1.336567e-38
0.44246238 0.23917046 0.72426832 1.4010663e-38
0.45428306 0.23916861 0.72549605 1.8343064e-38
0.45741186 0.23790258 0.72451031 1.8527094e-38
0.44543672 0.24110755 0.72463191 1.4287241e-38
0.44875187 0.2422414 0.72524065 1.8619647e-38
0.45083743 0.24118645 0.72576654 1.8619647e-38
0.44786677 0.24366289 0.72412908 1.6038576e-38
0.44893724 0.20043699 0.7261821 1.9264648e-38
0.45127618 0.20011769 0.72632968 1.9356842e-38
0.45457512 0.19998965 0.72628152 2.0462814e-38
0.45718485 0.20046702 0.72606409 2.0462814e-38
0.44517428 0.20287386 0.72637814 1.8428092e-38
0.44788086 0.20227683 0.72655505 1.9633425e-38
0.4509694 0.2027736 0.72678947 1.9817813e-38
0.45415297 0.20236759 0.72666585 2.0462814e-38
0.45778298 0.20261574 0.72639823 2.0094037e-38
0.46031111 0.20306158 0.72632444 2.0739038e-38
0.44329152 0.20584781 0.72659546 1.825087e-38
0.44615078 0.2056462 0.72697377 1.9633425e-38
0.44914877 0.20518647 0.72708452 1.9817813e-38
0.45148435 0.20557213 0.72723603 1.9817813e-38
0.45415249 0.20563574 0.72715348 2.0278425e-38
0.45735288 0.20523779 0.72703314 1.9725619e-38
0.46062618 0.20580126 0.72707838 2.018659e-38
0.46292862 0.20494875 0.72613972 2.0647561e-38
0.44088638 0.20870268 0.72619575 1.825087e-38
0.44290078 0.20827718 0.72678417 1.825087e-38
0.44581932 0.20872682 0.72723168 1.9633425e-38
0.44876656 0.20825462 0.72741568 1.9633425e-38
0.45202923 0.20838362 0.72763979 1.9910007e-38
0.45490476 0.20909943 0.72781938 1.9725619e-38
0.45690811 0.20784828 0.72768974 1.9725619e-38
0.4600853 0.20838109 0.72787052 2.0094396e-38
0.46365684 0.20869152 0.72726327 2.0555367e-38
0.46640626 0.20810521 0.72634476 2.0554649e-38
0.46873379 0.20947801 0.72621596 2.0553933e-38
0.44015875 0.21157666 0.72633421 1.825087e-38
0.44256535 0.21134365 0.72705185 1.8803677e-38
0.44567215 0.21142839 0.72745478 1.9633425e-38
0.44888201 0.21155088 0.72772926 1.9449036e-38
0.4516747 0.2114698 0.72792584 1.9725619e-38
0.45502642 0.21163999 0.72804403 1.9817813e-38
0.45745373 0.21137153 0.72809786 1.9817813e-38
0.45992255 0.21111467 0.72810912 1.9910007e-38
0.46343589 0.21179326 0.72782731 2.0555367e-38
0.46645707 0.21105078 0.7270785 2.0739755e-38
0.46849319 0.2114999 0.72656262 2.0739755e-38
0.43771833 0.21431628 0.72617418 1.8804035e-38
0.43976751 0.21460849 0.72669095 1.8619647e-38
0.44263992 0.21460226 0.72742689 1.9080259e-38
0.44551575 0.21412396 0.72769171 1.9449036e-38
0.44851446 0.21461911 0.72803849 1.9633425e-38
0.45181793 0.21478558 0.72819841 1.9817813e-38
0.45487946 0.21436457 0.72826171 1.9817813e-38
0.45810521 0.21494168 0.72835255 2.0002202e-38
0.46011195 0.21369623 0.72823554 2.0094396e-38
0.46335411 0.21456999 0.72794628 2.0463173e-38
0.46639809 0.21384747 0.72716385 2.083195e-38
0.43451074 0.21781427 0.72624409 1.8804035e-38
0.43663511 0.21746503 0.72662538 1.8804035e-38
0.43946648 0.21722159 0.72715408 1.8988424e-38
0.4423185 0.2176694 0.72767329 1.8711841e-38
0.44528064 0.21747251 0.72804791 1.9265006e-38
0.44834721 0.21731523 0.72829008 1.9725619e-38
0.45149079 0.21787851 0.7284435 1.9817813e-38
0.45454827 0.21746525 0.7285099 1.9817813e-38
0.45804042 0.21770935 0.72844779 2.018659e-38
0.46066594 0.21753548 0.72823167 2.0278784e-38
0.46340567 0.21740371 0.7278713 2.0463173e-38
0.46684882 0.21686344 0.72651196 2.0739755e-38
0.43136436 0.22199243 0.7262494 1.41954e-38
0.43352121 0.2203051 0.72656006 1.7882452e-38
0.43655843 0.22085856 0.72674453 1.9357201e-38
0.43940815 0.22040021 0.72699898 1.825087e-38
0.44227481 0.22040501 0.72773999 1.8804035e-38
0.44519192 0.22088528 0.72818232 1.9356842e-38
0.44824976 0.2200412 0.72843659 1.9633783e-38
0.45138884 0.22061057 0.72859579 1.9633783e-38
0.45461497 0.22051737 0.72865379 2.0002202e-38
0.4578011 0.22023599 0.7283957 2.018659e-38
0.46024618 0.22122753 0.72803909 2.018659e-38
0.46328783 0.21999902 0.72763914 2.0370978e-38
0.4652254 0.22151247 0.72643805 2.0370978e-38
0.43126845 0.22331119 0.72640002 1.4195041e-38
0.43334186 0.2228009 0.72643107 1.9633425e-38
0.43706998 0.22354276 0.7263605 1.8527094e-38
0.43961388 0.22370858 0.7271719 1.7974287e-38
0.44223565 0.22314222 0.72779971 1.9080618e-38
0.44523501 0.22366779 0.72811711 1.9633425e-38
0.44817901 0.22323728 0.72829962 1.9541589e-38
0.45147961 0.22343031 0.72846025 1.9633783e-38
0.45483902 0.22340633 0.72832167 2.0094396e-38
0.45745564 0.22325206 0.728095 2.018659e-38
0.46026847 0.22387937 0.72760272 2.018659e-38
0.46336728 0.22322527 0.72671354 2.0370978e-38
0.43681759 0.22646978 0.72634244 1.7974287e-38
0.43937951 0.22680333 0.72728759 1.825087e-38
0.44207224 0.22627744 0.72780508 1.9357201e-38
0.44531178 0.22646683 0.72800082 1.9633425e-38
0.44859713 0.22666952 0.72815752 1.9633425e-38
0.4516938 0.22630885 0.72814071 2.0002202e-38
0.45482901 0.22626276 0.72793168 2.0002202e-38
0.45689067 0.22670424 0.72771549 2.0094396e-38
0.45970303 0.22664332 0.72721708 2.0278784e-38
0.46207023 0.22658816 0.72617799 2.0370978e-38
0.4367232 0.229168 0.72648859 1.7974287e-38
0.43931597 0.22952129 0.7273854 1.8619647e-38
0.44244805 0.22967473 0.72771978 1.9633425e-38
0.44538695 0.22926611 0.72788686 1.9633425e-38
0.44855314 0.22988094 0.72798038 1.9818172e-38
0.45190126 0.22918685 0.72783101 2.0094396e-38
0.45442319 0.229707 0.727723 2.018659e-38
0.45708972 0.22959197 0.72742224 2.0278784e-38
0.46050906 0.22912017 0.72603387 2.0370978e-38
0.43673712 0.23123288 0.72646719 1.6407344e-38
0.43964422 0.23243302 0.72688031 1.6499538e-38
0.44234499 0.23283997 0.72763288 1.8435258e-38
0.44527993 0.23243769 0.72780526 1.9633425e-38
0.4485414 0.23264703 0.7279979 1.9633425e-38
0.45159635 0.23228347 0.72804296 2.0002202e-38
0.45483074 0.23230571 0.72792929 2.018659e-38
0.45628303 0.23362833 0.72739768 2.0647202e-38
0.44092041 0.23489939 0.7261436 1.4932597e-38
0.44286057 0.23585422 0.72684526 1.4932595e-38
0.44549555 0.23553753 0.72772235 1.8435258e-38
0.44857121 0.23543337 0.7279532 1.9633425e-38
0.45187563 0.23566326 0.72811222 1.954123e-38
0.45410082 0.23512658 0.72820151 2.018659e-38
0.45693129 0.2353382 0.726439 2.0647202e-38
0.44561392 0.23813432 0.72693264 1.6960509e-38
0.44863996 0.2380871 0.72744364 1.8619647e-38
0.45082828 0.23885813 0.72700036 1.8619647e-38
0.4481515 0.24054894 0.72614694 1.8619647e-38
0.45221144 0.24000689 0.72614861 1.8343064e-38
0.44664559 0.22702466 0.72990239 1.1516038e-38
