# .PCD v0.7 - Point Cloud Data file format
VERSION 0.7
FIELDS x y z rgb
SIZE 4 4 4 4
TYPE F F F F
COUNT 1 1 1 1
WIDTH 403
HEIGHT 1
VIEWPOINT 0 0 0 1 0 0 0
POINTS 403
DATA ascii
0.60998148 0.13079834 0.63721442 2.8599577e-39
0.60827148 0.13412261 0.63664001 2.8599577e-39
0.60922128 0.1323705 0.63816339 2.8599577e-39
0.60751688 0.13654424 0.63758552 2.8599577e-39
0.60707927 0.1398764 0.63813382 2.9514316e-39
0.606673 0.14247501 0.6372869 5.0654165e-39
0.60644519 0.14499083 0.63757271 9.3985663e-39
0.60617679 0.14847429 0.63655436 1.1708845e-38
0.61059898 0.15149291 0.63644356 1.1708845e-38
0.61005467 0.13059855 0.63982975 2.8599577e-39
0.608446 0.13382578 0.64048135 2.9514316e-39
0.6090858 0.13212916 0.64103484 3.1347397e-39
0.6080479 0.13606292 0.64052802 2.9514302e-39
0.60737848 0.13970444 0.64046395 3.0429042e-39
0.60687411 0.14301303 0.64109367 4.1438287e-39
0.60649639 0.14549097 0.6415652 8.102431e-39
0.60615033 0.14785351 0.64019769 1.1246428e-38
0.60946739 0.1311312 0.64325368 3.5917424e-39
0.60858202 0.13352329 0.64435089 4.2316944e-39
0.6081481 0.13610631 0.64354503 3.590292e-39
0.60765916 0.13952938 0.64280939 4.049108e-39
0.60684216 0.14276934 0.64382565 4.2320279e-39
0.60622001 0.14604104 0.64459956 8.6645927e-39
0.6059193 0.14877382 0.64228565 1.1708845e-38
0.60625112 0.1485965 0.64456081 1.1708845e-38
0.60629308 0.1503049 0.6445086 1.1708845e-38
0.60899693 0.13168293 0.64651752 3.0367189e-39
0.60977674 0.13012418 0.64555466 3.9550949e-39
0.60821915 0.1332376 0.64747787 2.0250725e-39
0.60776412 0.13677022 0.64536452 3.2200367e-39
0.60715216 0.13919924 0.64612299 2.3009433e-39
0.60652208 0.14246827 0.64690387 2.0272249e-39
0.60656565 0.14587092 0.64684987 9.680181e-39
0.60662854 0.14842963 0.64677197 1.1708845e-38
0.60667044 0.15013576 0.64671999 1.1708845e-38
0.60897303 0.1314649 0.64921737 4.6025788e-40
0.6097368 0.12980148 0.64960921 8.2868307e-40
0.6079309 0.13392358 0.6491673 6.4429041e-40
0.60725772 0.13644838 0.64866513 3.6842239e-40
0.60682327 0.13890582 0.64920163 9.219563e-41
0.60674536 0.14227846 0.64929783 2.39565e-39
0.60557801 0.14626813 0.65073931 1.1708845e-38
0.60603613 0.1446725 0.6501736 7.0057903e-39
0.60576016 0.14799771 0.65051436 1.1708845e-38
0.60651994 0.14985317 0.64957613 1.1708845e-38
0.60728168 0.15171342 0.64863557 1.1708845e-38
0.58416373 0.15494278 0.64810002 1.0602497e-38
0.60894394 0.13124678 0.65191281 9.219563e-41
0.60968828 0.1294789 0.65365309 9.2194229e-41
0.60769194 0.13390595 0.65256315 3.6877691e-40
0.60676932 0.13697654 0.65192848 9.1835496e-41
0.60641384 0.13944238 0.65236586 5.5317238e-40
0.60594064 0.14272535 0.65294808 8.0210198e-39
0.60617721 0.14108452 0.65265703 2.489282e-39
0.60569179 0.14520603 0.65325433 1.1708845e-38
0.60549843 0.1476966 0.65349221 1.1708845e-38
0.60674179 0.14965203 0.6519624 1.1708845e-38
0.60754573 0.15139261 0.65230024 1.1708845e-38
0.60848492 0.15316406 0.65247554 1.1708845e-38
0.60893601 0.13103339 0.65457189 1.9357201e-39
0.60970849 0.12927443 0.65627104 3.6866929e-39
0.60792124 0.13337794 0.65581131 3.3186335e-39
0.60667491 0.13673472 0.65469432 2.0279143e-39
0.60620171 0.14001486 0.65527439 1.2907388e-39
0.60597211 0.14249708 0.6555559 7.5600416e-39
0.60577893 0.14498469 0.65579259 1.1616649e-38
0.60578167 0.1483551 0.65578926 1.1708845e-38
0.60841835 0.15289491 0.6552043 1.1708845e-38
0.6092754 0.13018204 0.65855193 9.2194229e-40
0.60799539 0.13317615 0.65835571 5.5316537e-40
0.6067583 0.13617407 0.65810847 2.7658269e-40
0.60622227 0.13979003 0.65788645 2.7658689e-40
0.60591745 0.143093 0.6582588 7.2834548e-39
0.60568899 0.14556809 0.65853786 1.1708845e-38
0.60546076 0.14804105 0.65881664 1.1708845e-38
0.60684836 0.1515803 0.65843731 1.1708845e-38
0.61029452 0.15448897 0.65819317 1.2999584e-38
0.60971713 0.12886217 0.661515 9.2194229e-41
0.60899699 0.13041359 0.66238511 1.3825547e-39
0.60795927 0.13295454 0.66102433 1.8402972e-40
0.60658294 0.13640536 0.66182053 3.0416921e-39
0.60619819 0.13955717 0.66054285 2.7658689e-40
0.60588586 0.14285207 0.66092294 4.6097815e-39
0.60557377 0.14614347 0.66130269 1.1063476e-38
0.60534018 0.14860991 0.661587 1.1708845e-38
0.60518843 0.15025389 0.66177166 1.1708845e-38
0.60856462 0.15229526 0.66159976 1.2630801e-38
0.61281574 0.15453786 0.66039735 1.1708845e-38
0.60849857 0.13130167 0.66472548 2.8573036e-39
0.60757595 0.13350785 0.66410184 4.7008295e-39
0.6066395 0.13584255 0.66523325 1.2900017e-39
0.60619342 0.1392159 0.66446877 1.1974544e-39
0.60587394 0.14261609 0.66355276 3.7800208e-39
0.60605752 0.14158469 0.66593635 2.6700747e-39
0.60560232 0.14590958 0.66388214 1.0602497e-38
0.60546184 0.14839126 0.66405249 1.1708845e-38
0.60536832 0.15004502 0.66416591 1.1708845e-38
0.60860729 0.13076228 0.66806042 2.4817192e-39
0.60721111 0.13406044 0.66714382 1.8392267e-39
0.6064477 0.13642207 0.66806275 3.2160472e-39
0.60630679 0.13889976 0.6682322 4.593944e-39
0.60596389 0.14323799 0.66604942 7.2805751e-39
0.60611916 0.1422016 0.6684581 7.5452846e-39
0.60587752 0.14560911 0.6674515 1.1338983e-38
0.60573125 0.14891848 0.66762805 1.1708845e-38
0.60778058 0.15174738 0.66645825 1.1708845e-38
0.60897249 0.15343276 0.66762245 1.1708845e-38
0.61068559 0.15523496 0.66816413 1.1708845e-38
0.60830498 0.1313335 0.671009 5.8782046e-39
0.60736889 0.13352567 0.67040664 5.5108626e-39
0.60643286 0.13703287 0.67066824 5.9696814e-39
0.60629231 0.13950571 0.67083687 6.2462683e-39
0.60615826 0.14197858 0.67099756 7.5424063e-39
0.60609496 0.14529815 0.67107356 1.1245707e-38
0.60606426 0.14862397 0.67111039 1.1708845e-38
0.6067481 0.15127252 0.67029023 1.1708845e-38
0.60994458 0.15410598 0.67034316 1.1708845e-38
0.60843539 0.13114822 0.67342973 6.1529937e-39
0.60733402 0.13354763 0.67345589 6.1529923e-39
0.60646498 0.1368185 0.67320776 6.2448278e-39
0.60637856 0.14012936 0.673311 6.2448278e-39
0.60635561 0.14262038 0.67333847 7.7267976e-39
0.6063326 0.14511117 0.67336595 1.078257e-38
0.6063019 0.14843196 0.67340255 1.1708845e-38
0.60703063 0.15179479 0.67381865 1.1708845e-38
0.61057401 0.15470102 0.67345941 1.1708845e-38
0.60734695 0.13357781 0.67643422 6.2448278e-39
0.60646945 0.13625003 0.67662364 6.2448278e-39
0.60556841 0.13974154 0.67684329 7.0785485e-39
0.60531116 0.14300564 0.67714953 8.7459886e-39
0.60532159 0.14549428 0.6771372 1.1708845e-38
0.60574102 0.14807045 0.67663777 1.1708845e-38
0.6065886 0.15144947 0.67690897 1.1708845e-38
0.61128908 0.15460703 0.67518044 1.1708845e-38
0.61481047 0.15655488 0.67615759 1.1708845e-38
0.6041224 0.17472604 0.67755884 1.1338622e-38
0.61449629 0.12019864 0.68009138 8.6530727e-39
0.60769427 0.13308279 0.67942953 6.2448278e-39
0.60671073 0.13655795 0.67974257 6.2448278e-39
0.60580099 0.13956282 0.67912185 6.6157711e-39
0.60501897 0.14271472 0.68004942 1.0690014e-38
0.60537499 0.146097 0.67962712 1.1708845e-38
0.60577744 0.14866506 0.67914963 1.1708845e-38
0.60605693 0.15038149 0.67881817 1.1708845e-38
0.61075193 0.15423544 0.6783725 1.1708845e-38
0.61444855 0.15621874 0.6791358 1.1708845e-38
0.60841304 0.13196848 0.68366456 6.2448278e-39
0.60793841 0.13291711 0.68168604 6.2448278e-39
0.60703552 0.13605399 0.68274939 6.2448278e-39
0.60558695 0.14012244 0.68192035 6.7083254e-39
0.60616124 0.13847271 0.68251026 6.3377436e-39
0.60500777 0.1424823 0.68260491 1.0319792e-38
0.60538495 0.14586243 0.68215919 1.1708845e-38
0.60574877 0.1484174 0.68172908 1.1708845e-38
0.60599166 0.15012257 0.68144202 1.1708845e-38
0.60639298 0.15174028 0.68223721 1.1708845e-38
0.6094647 0.15369907 0.68243051 1.1708845e-38
0.61303544 0.15564895 0.68332595 1.1708845e-38
0.6084289 0.13176292 0.68617392 6.2448292e-39
0.60785365 0.13341121 0.68558359 6.2448278e-39
0.60698056 0.13582677 0.68534553 6.2448278e-39
0.60553354 0.13988698 0.68451834 6.6150508e-39
0.60609996 0.13895226 0.68637884 6.3373849e-39
0.60562104 0.1422635 0.6856786 9.5789876e-39
0.60534197 0.14526488 0.6855858 1.1708845e-38
0.60546982 0.14894179 0.68459332 1.1708845e-38
0.60751188 0.15149236 0.68598473 1.1708845e-38
0.61042452 0.15353698 0.68510473 1.1708845e-38
0.6135239 0.15550546 0.68528736 1.1708845e-38
0.61597115 0.15746073 0.68497789 1.1708845e-38
0.60847354 0.13156345 0.6886403 6.2448292e-39
0.60754561 0.13396594 0.68846464 6.2448292e-39
0.60662025 0.13718767 0.68828851 6.2448292e-39
0.60636872 0.13960607 0.6885826 6.6150508e-39
0.60611743 0.14202219 0.68887639 8.2821293e-39
0.60567355 0.14557013 0.68855697 1.1523735e-38
0.60541475 0.14856847 0.68844056 1.1708845e-38
0.60968006 0.15300027 0.68974888 1.1708845e-38
0.61210322 0.15493749 0.68945116 1.1708845e-38
0.61453694 0.15688318 0.68915212 1.1708845e-38
0.60868531 0.13139555 0.69090348 7.1707441e-39
0.60754943 0.13399322 0.69138724 8.4672409e-39
0.60669005 0.13698325 0.69071794 7.6338817e-39
0.60643893 0.13939746 0.69101048 9.485713e-39
0.60618597 0.14180896 0.69130516 1.1153512e-38
0.60576677 0.14500409 0.6917935 1.1708845e-38
0.60544384 0.14821534 0.69216967 1.1708845e-38
0.60605013 0.15080619 0.69146335 1.1708845e-38
0.60890961 0.13123056 0.6931445 1.1152792e-38
0.6091485 0.13106889 0.69536132 1.1708845e-38
0.60791278 0.13350648 0.69429749 1.1708845e-38
0.60678595 0.13667646 0.69435441 1.1708845e-38
0.60637927 0.13963635 0.6944105 1.1708845e-38
0.60578293 0.14395678 0.69427228 1.1708845e-38
0.60600483 0.14236498 0.69401473 1.1708845e-38
0.60556114 0.14554738 0.69452971 1.1708845e-38
0.60543799 0.14797583 0.69467258 1.1708845e-38
0.60646969 0.15135118 0.69472152 1.1708845e-38
0.61191773 0.1560417 0.69466549 1.1893236e-38
0.61296111 0.15602428 0.69595784 1.1893236e-38
0.63452435 0.1063796 0.69780743 1.1156394e-38
0.63763201 0.10656963 0.69810921 1.4843496e-38
0.60937911 0.1309063 0.69758022 1.1708845e-38
0.60831386 0.1330297 0.69715029 1.1708845e-38
0.60695142 0.13638464 0.69789302 1.1708845e-38
0.60638756 0.13988712 0.69771582 1.1708845e-38
0.60587454 0.14292848 0.69665468 1.1708845e-38
0.60607976 0.14274296 0.69889742 1.1708845e-38
0.60541958 0.14610122 0.69718081 1.1708845e-38
0.60561144 0.14859185 0.69695896 1.1708845e-38
0.60641873 0.15078403 0.69767994 1.1708845e-38
0.60855317 0.15389846 0.69604731 1.1893236e-38
0.61010206 0.15387046 0.69799042 1.1893236e-38
0.61480677 0.15593581 0.69881427 1.1708845e-38
0.61399937 0.15600578 0.69725531 1.1893236e-38
0.6327126 0.10772002 0.70103639 1.1709927e-38
0.60957313 0.13073763 0.69983351 1.1708845e-38
0.60834676 0.13330242 0.70041341 1.1708845e-38
0.60711139 0.13620061 0.70018375 1.1708845e-38
0.60679615 0.13940111 0.70054573 1.1708845e-38
0.60661209 0.14262472 0.70075715 1.1708845e-38
0.60589576 0.14596769 0.69910944 1.1708845e-38
0.60642815 0.14584634 0.70096827 1.1708845e-38
0.60575789 0.14838497 0.69926828 1.1708845e-38
0.60625899 0.14906913 0.7011624 1.1708845e-38
0.60777688 0.15172347 0.70065516 1.1893236e-38
0.61155224 0.15382078 0.70004457 1.1708845e-38
0.6152544 0.1557859 0.70077777 1.1708845e-38
0.63416266 0.10768518 0.70313823 1.1525537e-38
0.63673663 0.10780563 0.70401549 1.7240583e-38
0.63987058 0.10808091 0.70306987 1.6410822e-38
0.60975939 0.13097592 0.70372683 1.1708845e-38
0.60852951 0.13360213 0.70348984 1.1708845e-38
0.60910845 0.13208017 0.70282996 1.1708845e-38
0.60764927 0.13598326 0.70326424 1.1708845e-38
0.60725582 0.13916229 0.70371336 1.1708845e-38
0.60700697 0.14213288 0.70358819 1.1708845e-38
0.60674524 0.14568046 0.70306855 1.1708845e-38
0.60719264 0.14891252 0.70378619 1.3460562e-38
0.60851669 0.15152083 0.70350444 1.4105931e-38
0.60972714 0.1515426 0.70458311 1.4105931e-38
0.61173409 0.15361471 0.70230383 1.1708845e-38
0.61421186 0.15530504 0.70441586 1.1708845e-38
0.61796188 0.15589018 0.70265239 1.5212279e-38
0.63252443 0.10903814 0.70615351 1.7240583e-38
0.63471782 0.10918774 0.70621043 1.7240583e-38
0.63691878 0.10933784 0.70626765 1.7240583e-38
0.64032668 0.10957683 0.70625556 1.6779605e-38
0.642465 0.11297591 0.70762146 2.0836212e-38
0.61046785 0.13076736 0.70700914 1.1708845e-38
0.60898912 0.13347995 0.70542121 1.1708845e-38
0.60939956 0.13416153 0.70740283 1.1893236e-38
0.6082952 0.13578773 0.7062093 1.1708845e-38
0.60793024 0.13896714 0.70662373 1.4751301e-38
0.60766882 0.14250897 0.70610493 1.3737149e-38
0.60910463 0.14222988 0.70773655 1.3183975e-38
0.60745096 0.14548078 0.70594478 1.3829344e-38
0.6092 0.14549907 0.70762867 1.4751301e-38
0.60846323 0.14801529 0.70601839 1.1708845e-38
0.60945874 0.1491548 0.70652026 1.3460562e-38
0.61121428 0.1515038 0.70657289 1.2907388e-38
0.6114915 0.15331596 0.70503563 1.4105931e-38
0.61307663 0.1532978 0.70691919 1.3552758e-38
0.6178996 0.15374434 0.70762366 1.5304475e-38
0.63810366 0.156931 0.70630765 1.392154e-38
0.6324054 0.11051692 0.70872468 1.4752384e-38
0.63416004 0.11060663 0.70925617 1.4660188e-38
0.63747811 0.11083841 0.70932484 1.8439126e-38
0.63710845 0.11236314 0.7109372 2.0651821e-38
0.64007825 0.11429279 0.71017903 1.9545832e-38
0.64350694 0.11630009 0.70894521 1.9361441e-38
0.61125028 0.13118242 0.70938033 1.1708845e-38
0.61060405 0.13407552 0.70970148 1.1708844e-38
0.60885 0.13649414 0.70802468 1.1801041e-38
0.60967118 0.13643913 0.7095353 1.1801041e-38
0.60872871 0.13890639 0.70816195 1.1708845e-38
0.60943186 0.13882698 0.70980507 1.1524454e-38
0.6095823 0.14210275 0.70963538 1.1431898e-38
0.61032945 0.14569773 0.70960492 1.3368006e-38
0.61098671 0.14877585 0.70927113 1.5027888e-38
0.61315739 0.14888394 0.71048546 1.6963996e-38
0.61503702 0.1498612 0.7108162 1.6963996e-38
0.61340791 0.15149781 0.70898831 1.5488866e-38
0.61660838 0.15170906 0.71028125 1.5488866e-38
0.61980081 0.15203685 0.71038377 1.5304475e-38
0.61524594 0.1534076 0.70814782 1.5488866e-38
0.63233829 0.11199725 0.71122974 1.5581061e-38
0.63357103 0.11283807 0.71232229 1.8070343e-38
0.63625056 0.11389428 0.71185982 2.0651821e-38
0.63501716 0.1153643 0.71318626 1.9545474e-38
0.6385203 0.11572155 0.7118485 2.0651821e-38
0.6402685 0.11747463 0.71240288 1.9453278e-38
0.61189944 0.13157219 0.71189356 1.1247867e-38
0.61242151 0.13045059 0.71292543 1.1524454e-38
0.61152571 0.13393684 0.71231186 1.1340062e-38
0.61218393 0.13304263 0.71399802 1.1708845e-38
0.61069107 0.13712697 0.71203387 1.1801041e-38
0.61058867 0.1395392 0.71214873 1.1985432e-38
0.61066949 0.14198737 0.71205831 1.2262017e-38
0.612656 0.14286447 0.71347153 1.539667e-38
0.61113733 0.14451557 0.71153426 1.2446407e-38
0.61363959 0.14550108 0.71237475 1.5765453e-38
0.61618233 0.14649586 0.71318102 1.5949844e-38
0.61455721 0.14813146 0.71135122 1.6963996e-38
0.61680061 0.14883526 0.71209079 1.5857648e-38
0.61921674 0.14841002 0.71345496 1.6595213e-38
0.61907005 0.15012786 0.71240646 1.5949844e-38
0.62226766 0.15045127 0.71251702 1.5857648e-38
0.61368978 0.13058352 0.71594507 1.2354214e-38
0.61324596 0.13396594 0.71571392 1.244641e-38
0.61193252 0.13785703 0.71427834 1.2999584e-38
0.61264044 0.13677125 0.71510029 1.2999584e-38
0.61192578 0.13947609 0.71428585 1.2538606e-38
0.61285895 0.13944243 0.71566188 1.2169463e-38
0.61198145 0.14110754 0.71422386 1.5304475e-38
0.61416233 0.14178956 0.71501893 1.5580701e-38
0.61643982 0.1430696 0.71531332 1.6318625e-38
0.61708784 0.14482689 0.71459717 1.6503018e-38
0.61945271 0.14613168 0.7148068 1.6410822e-38
0.62235343 0.14685234 0.716048 1.4659105e-38
0.62087739 0.14852464 0.71404511 1.6595213e-38
0.62254119 0.14863947 0.71463627 1.6503018e-38
0.60781801 0.15212861 0.7149266 1.9084495e-38
0.61487019 0.13130702 0.71824992 1.1708845e-38
0.61385548 0.13354661 0.71936917 1.1708845e-38
0.61363506 0.13684377 0.71841168 1.1708845e-38
0.61404938 0.1393512 0.71795422 1.1708845e-38
0.6164906 0.14173996 0.71806651 1.2169822e-38
0.61927009 0.14297093 0.71941906 1.3276171e-38
0.62009948 0.14487553 0.71731037 1.2999584e-38
0.62198454 0.14492027 0.71885598 1.3183975e-38
0.62471342 0.14687999 0.71829009 1.3183975e-38
0.61391997 0.13093343 0.7216925 1.1708845e-38
0.6136111 0.13329701 0.72203195 1.1708845e-38
0.61447489 0.13668829 0.72108245 1.1708845e-38
0.61529249 0.13744116 0.72257483 1.1708845e-38
0.61543506 0.13919099 0.72122347 1.1708845e-38
0.61804175 0.14099561 0.72195715 1.1893236e-38
0.6170463 0.14101696 0.72065419 1.1893236e-38
0.62151134 0.14297649 0.72176486 1.1893236e-38
0.62387073 0.14496504 0.72040272 1.3276171e-38
0.62575203 0.1450085 0.7219578 1.3183975e-38
0.61829627 0.11626701 0.7250514 1.1893236e-38
0.61456496 0.13085082 0.72337162 1.1708845e-38
0.61526561 0.13077858 0.72498643 1.1705965e-38
0.61445278 0.13291277 0.72428799 1.1614849e-38
0.6150955 0.13396993 0.72517204 1.1612329e-38
0.61485183 0.13574304 0.72305745 1.1708845e-38
0.61603051 0.13676383 0.72494489 1.1891796e-38
0.61672258 0.13901281 0.72458702 1.2077628e-38
0.61903691 0.14097425 0.72325957 1.1893236e-38
0.62039787 0.14102489 0.72416496 1.4474714e-38
0.62282968 0.14175476 0.72470921 1.3455882e-38
0.62576187 0.14316089 0.72433174 1.4473994e-38
0.62808788 0.14329213 0.72540814 1.410161e-38
0.61633813 0.13067466 0.72737908 1.1125064e-38
0.61624181 0.13307202 0.72748399 1.2689149e-38
0.61704928 0.13614164 0.72700286 1.1060593e-38
0.61842775 0.13639393 0.72866774 1.1581716e-38
0.61854768 0.1389401 0.72735476 1.1881713e-38
0.62399292 0.14108033 0.7274158 1.1229143e-38
0.62533933 0.14112759 0.72834271 1.499656e-38
0.62878108 0.14147484 0.72822773 1.4355871e-38
0.61674893 0.11586399 0.73046637 1.3795136e-38
0.62934673 0.12503597 0.73116857 1.8836729e-38
0.61765265 0.13061488 0.72950435 1.3230441e-38
0.61936653 0.12982208 0.73119736 1.3233319e-38
0.61785263 0.13226056 0.72928858 1.3230441e-38
0.61897624 0.1334728 0.73043746 1.2315326e-38
0.61994469 0.13636926 0.73057592 1.3047849e-38
0.62046653 0.13888603 0.73001581 1.2404281e-38
0.62245929 0.13895231 0.73141778 1.2687708e-38
0.62541294 0.13920265 0.73180407 1.2685907e-38
0.62562603 0.12459666 0.73275274 1.4752024e-38
0.62296003 0.12755638 0.73323512 1.0878724e-38
0.62517285 0.12660976 0.73401576 1.4660187e-38
0.63297218 0.12852484 0.73206115 1.8873458e-38
0.62008166 0.1305587 0.7327826 1.2313525e-38
0.62211651 0.12942111 0.73413247 1.3070176e-38
0.62021577 0.13269453 0.73303097 1.2148218e-38
0.62187117 0.133802 0.73439348 1.0842716e-38
0.62215734 0.13637242 0.73291576 1.3230441e-38
0.62413538 0.13724023 0.7343328 1.3230441e-38
0.6283347 0.13761762 0.73458463 1.6446485e-38
0.62837774 0.13945396 0.73219192 1.2775944e-38
0.64440894 0.14767575 0.73494846 1.3453001e-38
0.62394112 0.12895438 0.73687756 1.0598897e-38
0.62599963 0.12760714 0.73587328 1.6655723e-38
0.6279043 0.12622523 0.73503757 1.9479579e-38
0.62294114 0.13048208 0.73676747 1.4354792e-38
0.62822539 0.12932044 0.73703814 1.8651979e-38
0.62095648 0.13202724 0.73536652 1.0766004e-38
0.62279761 0.13286668 0.73691905 1.2683748e-38
0.62530547 0.13382851 0.73777229 1.6171699e-38
0.62740546 0.13401198 0.73789781 1.6170979e-38
0.63000512 0.13428606 0.73750889 1.5987666e-38
0.62349153 0.13550837 0.73501521 1.0841996e-38
0.62530667 0.13611113 0.73621529 1.6171339e-38
0.62922996 0.13596219 0.7359848 1.5895832e-38
0.62488741 0.12892807 0.73821229 1.078761e-38
0.6250118 0.13046072 0.73924518 1.0783289e-38
0.62486196 0.13204047 0.73940289 1.2777746e-38
0.62785304 0.13228317 0.73975712 1.4610494e-38
