# .PCD v0.7 - Point Cloud Data file format
VERSION 0.7
FIELDS x y z rgb
SIZE 4 4 4 4
TYPE F F F F
COUNT 1 1 1 1
WIDTH 1026
HEIGHT 1
VIEWPOINT 0 0 0 1 0 0 0
POINTS 1026
DATA ascii
0.70043856 0.2442372 0.61000085 1.0694693e-38
0.7029323 0.24463227 0.61000091 1.0694693e-38
0.70627213 0.24484847 0.61000103 1.0694693e-38
0.7104671 0.24394509 0.61000103 1.0694693e-38
0.71299666 0.24434248 0.61000103 1.0694693e-38
0.7155354 0.24474129 0.61000109 1.0694693e-38
0.7180832 0.24419603 0.61000109 1.0694693e-38
0.72064024 0.24459603 0.61000103 1.0694693e-38
0.72449416 0.24424911 0.61000109 1.0694693e-38
0.72836673 0.24485233 0.61000109 1.0694693e-38
0.73096091 0.24430232 0.61000115 1.0694693e-38
0.7335645 0.24470614 0.61000109 1.0694693e-38
0.73617756 0.24415386 0.61000115 1.0694693e-38
0.73880017 0.24455887 0.61000115 1.0694693e-38
0.74143231 0.24496537 0.61000115 1.0694693e-38
0.74539989 0.24461439 0.61000121 1.0694693e-38
0.74938679 0.24426109 0.61000127 1.0694693e-38
0.75205785 0.24467002 0.61000133 1.0694693e-38
0.75473875 0.24411055 0.61000133 1.0694693e-38
0.75742954 0.24452074 0.61000133 1.0694693e-38
0.76013029 0.24493241 0.61000139 1.0694693e-38
0.76284105 0.24437034 0.61000133 1.0694693e-38
0.76556182 0.24478325 0.61000139 1.0694693e-38
0.76829273 0.2442188 0.61000144 1.0694693e-38
0.77286816 0.24425511 0.61000139 1.0694693e-38
0.77654696 0.24448162 0.61000139 1.0694693e-38
0.77931893 0.24489863 0.61000139 1.0694693e-38
0.78210127 0.24432907 0.61000156 1.0694693e-38
0.78489423 0.24474739 0.6100015 1.0694693e-38
0.78769767 0.2441754 0.6100015 1.0694693e-38
0.79051173 0.24459501 0.6100015 1.0694693e-38
0.79333633 0.24402057 0.6100015 1.0694693e-38
0.79617161 0.24444143 0.61000162 1.0694693e-38
0.79901773 0.24486393 0.61000168 1.0694693e-38
0.80187476 0.24428675 0.61000162 1.0694693e-38
0.80474257 0.24471053 0.61000168 1.0694693e-38
0.80762142 0.24413083 0.61000168 1.0694693e-38
0.81051123 0.24455595 0.61000168 1.0694693e-38
0.81341225 0.24498273 0.61000168 1.0694693e-38
0.81632423 0.2444002 0.61000174 1.0694693e-38
0.81924754 0.24482831 0.61000174 1.0694693e-38
0.82218206 0.24424325 0.61000168 1.0694693e-38
0.82512796 0.2446727 0.6100018 1.0694693e-38
0.82808524 0.24408507 0.6100018 1.0694693e-38
0.83105403 0.24451588 0.6100018 1.0694693e-38
0.83403426 0.24494836 0.61000186 1.0694693e-38
0.8370263 0.24435785 0.61000186 1.0694693e-38
0.8400299 0.2447917 0.61000192 1.0694693e-38
0.84304512 0.24419856 0.61000192 1.0694693e-38
0.84607232 0.24463379 0.61000198 1.0694693e-38
0.84911144 0.24403805 0.61000192 1.0694693e-38
0.85216236 0.24447468 0.61000192 1.0694693e-38
0.85522532 0.24491306 0.61000204 1.0694693e-38
0.85830045 0.24431428 0.61000204 1.0694693e-38
0.86138779 0.24475409 0.61000198 1.0694693e-38
0.86448729 0.24415265 0.61000204 1.0694693e-38
0.86759907 0.24459384 0.61000216 1.0694693e-38
0.33162954 0.24775223 0.60999835 1.0694693e-38
0.33502102 0.24711166 0.6099984 1.0694693e-38
0.33775091 0.24770404 0.60999846 1.0694693e-38
0.3403576 0.24729779 0.60999846 1.0694693e-38
0.34325397 0.24750622 0.60999846 1.0694693e-38
0.34616646 0.24771538 0.60999852 1.0694693e-38
0.34951571 0.24745639 0.60999846 1.0694693e-38
0.35302573 0.24750574 0.60999858 1.0694693e-38
0.35585135 0.24740556 0.60999858 1.0694693e-38
0.35883453 0.24761693 0.60999858 1.0694693e-38
0.36154819 0.24720266 0.60999858 1.0694693e-38
0.36441961 0.2478105 0.60999858 1.0694693e-38
0.3671619 0.24739406 0.60999864 1.0694693e-38
0.37020931 0.24760817 0.60999864 1.0694693e-38
0.37312776 0.24750568 0.6099987 1.0694693e-38
0.37606215 0.24740361 0.6099987 1.0694693e-38
0.37916049 0.24761903 0.6099987 1.0694693e-38
0.38197926 0.24719682 0.6099987 1.0694693e-38
0.3849622 0.24781632 0.60999876 1.0694693e-38
0.38796163 0.24698772 0.60999876 1.0694693e-38
0.39097765 0.24761009 0.60999876 1.0694693e-38
0.39401042 0.24750562 0.60999882 1.0694693e-38
0.39706004 0.24740157 0.60999882 1.0694693e-38
0.40012664 0.2480303 0.60999882 1.0694693e-38
0.40321046 0.2471907 0.60999888 1.0694693e-38
0.40631151 0.24782237 0.60999888 1.0694693e-38
0.40943003 0.24697749 0.60999894 1.0694693e-38
0.41256621 0.24761212 0.60999894 1.0694693e-38
0.41572011 0.24750555 0.60999894 1.0694693e-38
0.41889179 0.24739945 0.60999894 1.0694693e-38
0.42208162 0.24804069 0.609999 1.0694693e-38
0.42448539 0.24702378 0.609999 1.0694693e-38
0.42690054 0.24750605 0.60999906 1.0694693e-38
0.43013614 0.24739783 0.60999906 1.0694693e-38
0.43339032 0.24729006 0.60999906 1.0694693e-38
0.43666333 0.24793927 0.60999918 1.0694693e-38
0.43995517 0.24707152 0.60999912 1.0694693e-38
0.44243598 0.24756032 0.60999918 1.0694693e-38
0.44492885 0.24805152 0.60999918 1.0694693e-38
0.44743133 0.24777924 0.60999918 1.0694693e-38
0.55336595 0.24768481 0.60999984 1.0694693e-38
0.55603194 0.24788444 0.6099999 1.0694693e-38
0.55937886 0.24708574 0.6099999 1.0694693e-38
0.56240773 0.2476261 0.6099999 1.0694693e-38
0.5654496 0.24732484 0.60999995 1.0694693e-38
0.56884819 0.24736445 0.61000001 1.0694693e-38
0.57157898 0.24756622 0.61000001 1.0694693e-38
0.574323 0.24776851 0.61000007 1.0694693e-38
0.57776797 0.24695784 0.61000013 1.0694693e-38
0.58088595 0.24750575 0.61000013 1.0694693e-38
0.5840174 0.24805608 0.61000013 1.0694693e-38
0.58611417 0.24756688 0.61000007 1.0694693e-38
0.58927298 0.24726012 0.61000013 1.0694693e-38
0.59244561 0.24781343 0.61000013 1.0694693e-38
0.59563541 0.24750575 0.61000019 1.0694693e-38
0.59883946 0.24719626 0.61000019 1.0694693e-38
0.60098481 0.24756756 0.61000025 1.0694693e-38
0.6038571 0.24777453 0.61000025 1.0694693e-38
0.60746348 0.24694507 0.61000031 1.0694693e-38
0.61072803 0.24750574 0.61000025 1.0694693e-38
0.61400712 0.24806887 0.61000025 1.0694693e-38
0.61620271 0.24756823 0.61000037 1.0694693e-38
0.61914259 0.246898 0.61000031 1.0694693e-38
0.70043856 0.24703851 0.61000085 1.0694693e-38
0.7029323 0.24743856 0.61000091 1.0694693e-38
0.70710939 0.24748282 0.61000091 1.0694693e-38
0.7104671 0.24770688 0.61000103 1.0694693e-38
0.71299666 0.24716887 0.61000103 1.0694693e-38
0.7155354 0.24757275 0.61000109 1.0694693e-38
0.7180832 0.24703258 0.61000109 1.0694693e-38
0.72064024 0.24743769 0.61000103 1.0694693e-38
0.72406483 0.24766336 0.61000109 1.0694693e-38
0.72836673 0.24770941 0.61000109 1.0694693e-38
0.73096091 0.24716458 0.61000115 1.0694693e-38
0.7335645 0.2475736 0.61000109 1.0694693e-38
0.73617756 0.24798408 0.61000115 1.0694693e-38
0.73880017 0.24743678 0.61000115 1.0694693e-38
0.74143231 0.24784854 0.61000115 1.0694693e-38
0.74539989 0.24750549 0.61000121 1.0694693e-38
0.74938679 0.24716015 0.61000127 1.0694693e-38
0.75205785 0.24757442 0.61000133 1.0694693e-38
0.75473875 0.2470203 0.61000133 1.0694693e-38
0.75742954 0.24743587 0.61000133 1.0694693e-38
0.76013029 0.24785292 0.61000139 1.0694693e-38
0.76284105 0.24729627 0.61000133 1.0694693e-38
0.76556182 0.24771462 0.61000139 1.0694693e-38
0.76829273 0.24715561 0.61000144 1.0694693e-38
0.77240962 0.24778591 0.61000144 1.0694693e-38
0.77654696 0.24743491 0.61000139 1.0694693e-38
0.77931893 0.24785747 0.61000139 1.0694693e-38
0.78210127 0.24729346 0.61000156 1.0694693e-38
0.78489423 0.24771735 0.6100015 1.0694693e-38
0.78769767 0.24715097 0.6100015 1.0694693e-38
0.79051173 0.24757619 0.6100015 1.0694693e-38
0.79333633 0.2470074 0.6100015 1.0694693e-38
0.79617161 0.24743393 0.61000162 1.0694693e-38
0.79901773 0.24786209 0.61000168 1.0694693e-38
0.80187476 0.24729061 0.61000162 1.0694693e-38
0.80474257 0.24772012 0.61000168 1.0694693e-38
0.80762142 0.24714619 0.61000168 1.0694693e-38
0.81051123 0.24757707 0.61000168 1.0694693e-38
0.81341225 0.24700068 0.61000168 1.0694693e-38
0.81632423 0.24743293 0.61000174 1.0694693e-38
0.81924754 0.24786688 0.61000174 1.0694693e-38
0.82218206 0.24728769 0.61000168 1.0694693e-38
0.82512796 0.24772301 0.6100018 1.0694693e-38
0.82808524 0.24714129 0.6100018 1.0694693e-38
0.83105403 0.24757802 0.6100018 1.0694693e-38
0.83403426 0.24801645 0.61000186 1.0694693e-38
0.8370263 0.24743193 0.61000186 1.0694693e-38
0.8400299 0.24787177 0.61000192 1.0694693e-38
0.84304512 0.24728465 0.61000192 1.0694693e-38
0.84607232 0.24772593 0.61000198 1.0694693e-38
0.84911144 0.24713627 0.61000192 1.0694693e-38
0.85216236 0.24757898 0.61000192 1.0694693e-38
0.85522532 0.24698666 0.61000204 1.0694693e-38
0.85830045 0.24743085 0.61000204 1.0694693e-38
0.86138779 0.24787681 0.61000198 1.0694693e-38
0.86448729 0.24728155 0.61000204 1.0694693e-38
0.86759907 0.24772897 0.61000216 1.0694693e-38
0.33162954 0.2505053 0.6099984 1.0694693e-38
0.33488488 0.25025791 0.6099984 1.0694693e-38
0.33775091 0.25047344 0.60999846 1.0694693e-38
0.34063277 0.25068969 0.60999846 1.0694693e-38
0.34325397 0.25029027 0.60999846 1.0694693e-38
0.34602743 0.2508958 0.60999852 1.0694693e-38
0.34951571 0.25025707 0.60999846 1.0694693e-38
0.35316664 0.25062755 0.60999858 1.0694693e-38
0.35585135 0.25022313 0.60999858 1.0694693e-38
0.35869211 0.25083581 0.60999858 1.0694693e-38
0.36154816 0.25003541 0.60999858 1.0694693e-38
0.36441964 0.25065088 0.60999864 1.0694693e-38
0.36730665 0.25055718 0.60999864 1.0694693e-38
0.37020931 0.25046396 0.60999864 1.0694693e-38
0.37327415 0.25068697 0.6099987 1.0694693e-38
0.37606215 0.25027502 0.6099987 1.0694693e-38
0.37901258 0.25089952 0.6099987 1.0694693e-38
0.38197926 0.25008395 0.6099987 1.0694693e-38
0.3849622 0.25071138 0.60999876 1.0694693e-38
0.38781124 0.25029451 0.60999882 1.0694693e-38
0.39097765 0.25052118 0.60999876 1.0694693e-38
0.39401042 0.2504248 0.60999882 1.0694693e-38
0.39706004 0.25032887 0.60999882 1.0694693e-38
0.40012664 0.25096574 0.60999882 1.0694693e-38
0.40321046 0.25013438 0.60999888 1.0694693e-38
0.40631151 0.25077429 0.60999888 1.0694693e-38
0.40927368 0.25034937 0.60999888 1.0694693e-38
0.41256624 0.25058067 0.60999894 1.0694693e-38
0.41572011 0.25048256 0.60999894 1.0694693e-38
0.41889179 0.25038487 0.60999894 1.0694693e-38
0.42208162 0.25103462 0.609999 1.0694693e-38
0.42448539 0.25002408 0.609999 1.0694693e-38
0.42690054 0.25051281 0.60999906 1.0694693e-38
0.43013614 0.25041318 0.60999906 1.0694693e-38
0.43339032 0.25031409 0.60999906 1.0694693e-38
0.43666333 0.25097203 0.60999918 1.0694693e-38
0.43995517 0.25011304 0.60999912 1.0694693e-38
0.44243598 0.25060844 0.60999918 1.0694693e-38
0.44465137 0.25079611 0.60999918 1.0694693e-38
0.44826874 0.2502414 0.60999918 1.0694693e-38
0.45134735 0.25110835 0.60999918 1.0694693e-38
0.55137438 0.25149959 0.6099999 1.0694693e-38
0.55336595 0.2510283 0.60999984 1.0694693e-38
0.55670005 0.25023925 0.6099999 1.0694693e-38
0.55937886 0.25044525 0.6099999 1.0694693e-38
0.56207043 0.25065172 0.6099999 1.0694693e-38
0.5654496 0.24985656 0.60999995 1.0694693e-38
0.56850767 0.25040621 0.61000001 1.0694693e-38
0.57157898 0.2509582 0.61000001 1.0694693e-38
0.57501072 0.25015751 0.61000007 1.0694693e-38
0.57776797 0.2503663 0.61000013 1.0694693e-38
0.58088595 0.25092253 0.61000013 1.0694693e-38
0.5840174 0.2506249 0.61000013 1.0694693e-38
0.58611417 0.25013989 0.61000007 1.0694693e-38
0.58927298 0.25069922 0.61000013 1.0694693e-38
0.59244561 0.25039908 0.61000013 1.0694693e-38
0.59563547 0.25009775 0.61000019 1.0694693e-38
0.59883946 0.25066081 0.61000019 1.0694693e-38
0.60098481 0.25103784 0.61000025 1.0694693e-38
0.604577 0.25021884 0.61000025 1.0694693e-38
0.60746348 0.25043261 0.61000031 1.0694693e-38
0.6103645 0.25064695 0.61000025 1.0694693e-38
0.61400712 0.25069758 0.61000025 1.0694693e-38
0.61620271 0.25020134 0.61000037 1.0694693e-38
0.61840582 0.24970347 0.61000031 1.0694693e-38
0.7029323 0.24930942 0.61000091 1.0694693e-38
0.70710939 0.25061095 0.61000091 1.0694693e-38
0.7104671 0.25052822 0.61000103 1.0694693e-38
0.71299666 0.24999526 0.61000103 1.0694693e-38
0.7155354 0.25040421 0.61000109 1.0694693e-38
0.7180832 0.25081465 0.61000109 1.0694693e-38
0.72064024 0.25027934 0.61000103 1.0694693e-38
0.72492337 0.25033268 0.61000109 1.0694693e-38
0.72836673 0.25056648 0.61000109 1.0694693e-38
0.73096091 0.25098091 0.61000115 1.0694693e-38
0.7335645 0.25044107 0.61000109 1.0694693e-38
0.73617756 0.25085676 0.61000115 1.0694693e-38
0.73880017 0.25031468 0.61000115 1.0694693e-38
0.74143231 0.25073171 0.61000115 1.0694693e-38
0.74539989 0.25039655 0.61000121 1.0694693e-38
0.74938679 0.25005919 0.61000127 1.0694693e-38
0.75205785 0.2504788 0.61000133 1.0694693e-38
0.75473875 0.25089997 0.61000133 1.0694693e-38
0.75742954 0.25035098 0.61000133 1.0694693e-38
0.76013029 0.25077343 0.61000139 1.0694693e-38
0.76284105 0.25022221 0.61000133 1.0694693e-38
0.76556182 0.250646 0.61000139 1.0694693e-38
0.76829273 0.25009245 0.61000144 1.0694693e-38
0.77240962 0.25073093 0.61000144 1.0694693e-38
0.77654696 0.25038821 0.61000139 1.0694693e-38
0.77931893 0.25081629 0.61000139 1.0694693e-38
0.78210127 0.25025785 0.61000156 1.0694693e-38
0.78489423 0.2506873 0.6100015 1.0694693e-38
0.78769767 0.25012654 0.6100015 1.0694693e-38
0.79051173 0.25055736 0.6100015 1.0694693e-38
0.79333633 0.25098982 0.6100015 1.0694693e-38
0.79617161 0.25042641 0.61000162 1.0694693e-38
0.79901773 0.25086027 0.61000168 1.0694693e-38
0.80187476 0.25029448 0.61000162 1.0694693e-38
0.80474257 0.25072974 0.61000168 1.0694693e-38
0.80762142 0.25016153 0.61000168 1.0694693e-38
0.81051123 0.25059819 0.61000168 1.0694693e-38
0.81341225 0.2500276 0.61000168 1.0694693e-38
0.81632423 0.25046566 0.61000174 1.0694693e-38
0.81924754 0.25090545 0.61000174 1.0694693e-38
0.82218206 0.25033212 0.61000168 1.0694693e-38
0.82512796 0.25077331 0.6100018 1.0694693e-38
0.82808524 0.2501975 0.6100018 1.0694693e-38
0.83105403 0.25064015 0.6100018 1.0694693e-38
0.83403426 0.25006184 0.61000186 1.0694693e-38
0.8370263 0.25050598 0.61000186 1.0694693e-38
0.8400299 0.25095183 0.61000192 1.0694693e-38
0.84304512 0.25037074 0.61000192 1.0694693e-38
0.84607232 0.25081807 0.61000198 1.0694693e-38
0.84911144 0.25023445 0.61000192 1.0694693e-38
0.85216236 0.25068328 0.61000192 1.0694693e-38
0.85522532 0.25009707 0.61000204 1.0694693e-38
0.85830045 0.25054741 0.61000204 1.0694693e-38
0.86138779 0.24995863 0.61000198 1.0694693e-38
0.86448729 0.25041047 0.61000204 1.0694693e-38
0.86759907 0.25086409 0.61000216 1.0694693e-38
0.33162954 0.25325838 0.6099984 1.0694693e-38
0.33515716 0.25363278 0.6099984 1.0694693e-38
0.33775091 0.25324279 0.60999846 1.0694693e-38
0.3404952 0.2538529 0.60999846 1.0694693e-38
0.34325397 0.25307429 0.60999846 1.0694693e-38
0.34602743 0.2536872 0.60999852 1.0694693e-38
0.34931582 0.25331354 0.6099984 1.0694693e-38
0.35302573 0.25382879 0.60999858 1.0694693e-38
0.3557097 0.25343212 0.60999858 1.0694693e-38
0.35869211 0.25366092 0.60999858 1.0694693e-38
0.36140496 0.25326172 0.60999864 1.0694693e-38
0.36441961 0.25349128 0.60999858 1.0694693e-38
0.36745137 0.25372165 0.60999858 1.0694693e-38
0.37020928 0.25331974 0.60999864 1.0694693e-38
0.37312782 0.25394922 0.6099987 1.0694693e-38
0.37606215 0.25314635 0.6099987 1.0694693e-38
0.37901258 0.25377879 0.6099987 1.0694693e-38
0.38183054 0.25337219 0.6099987 1.0694693e-38
0.3849622 0.2536065 0.60999876 1.0694693e-38
0.38796163 0.25351912 0.60999876 1.0694693e-38
0.39097768 0.25343227 0.60999876 1.0694693e-38
0.39416248 0.25366825 0.60999882 1.0694693e-38
0.39706004 0.25325617 0.60999882 1.0694693e-38
0.40012664 0.25390124 0.60999882 1.0694693e-38
0.40321046 0.25307804 0.60999888 1.0694693e-38
0.40631151 0.25372624 0.60999888 1.0694693e-38
0.40943006 0.25363749 0.60999894 1.0694693e-38
0.41256621 0.25354928 0.60999894 1.0694693e-38
0.41572011 0.25345951 0.60999894 1.0694693e-38
0.41889179 0.25337029 0.60999894 1.0694693e-38
0.42208159 0.2540285 0.60999906 1.0694693e-38
0.42448539 0.2530244 0.609999 1.0694693e-38
0.42690054 0.25351956 0.60999906 1.0694693e-38
0.43013614 0.25342855 0.60999906 1.0694693e-38
0.43339032 0.25333813 0.60999906 1.0694693e-38
0.43666333 0.25400478 0.60999918 1.0694693e-38
0.4399552 0.25315458 0.60999906 1.0694693e-38
0.44243598 0.25365657 0.60999918 1.0694693e-38
0.44492885 0.25339675 0.60999918 1.0694693e-38
0.44826877 0.25330508 0.60999918 1.0694693e-38
0.45162815 0.2539804 0.60999918 1.0694693e-38
0.4550072 0.2531189 0.60999918 1.0694693e-38
0.45755392 0.25439954 0.60999918 1.0694693e-38
0.45925838 0.25474104 0.6099993 1.0694693e-38
0.55071259 0.25415847 0.6099999 1.0694693e-38
0.55336595 0.2535359 0.60999984 1.0694693e-38
0.55636597 0.25325119 0.6099999 1.0694693e-38
0.55937886 0.25380471 0.6099999 1.0694693e-38
0.56274498 0.25301936 0.60999995 1.0694693e-38
0.5654496 0.25323221 0.60999995 1.0694693e-38
0.56850767 0.25378999 0.61000001 1.0694693e-38
0.57157898 0.25350219 0.61000001 1.0694693e-38
0.57466686 0.25321326 0.61000001 1.0694693e-38
0.57776797 0.25377476 0.61000013 1.0694693e-38
0.58088595 0.25348508 0.61000013 1.0694693e-38
0.5840174 0.25319374 0.61000013 1.0694693e-38
0.58611417 0.25357056 0.61000007 1.0694693e-38
0.58892125 0.25378823 0.61000013 1.0694693e-38
0.59244561 0.25298473 0.61000013 1.0694693e-38
0.59563547 0.25355381 0.61000019 1.0694693e-38
0.59883946 0.25412539 0.61000019 1.0694693e-38
0.60098481 0.25364053 0.61000025 1.0694693e-38
0.60421705 0.25334528 0.61000025 1.0694693e-38
0.60746348 0.25392011 0.61000031 1.0694693e-38
0.61109155 0.25310504 0.61000025 1.0694693e-38
0.61400712 0.2533263 0.61000025 1.0694693e-38
0.7104671 0.25334954 0.61000103 1.0694693e-38
0.71299666 0.25376377 0.61000103 1.0694693e-38
0.7155354 0.25323567 0.61000109 1.0694693e-38
0.7180832 0.25365117 0.61000109 1.0694693e-38
0.72064024 0.25312099 0.61000103 1.0694693e-38
0.7244941 0.25374693 0.61000109 1.0694693e-38
0.72836673 0.25342357 0.61000109 1.0694693e-38
0.73096091 0.25384319 0.61000115 1.0694693e-38
0.7335645 0.25330853 0.61000109 1.0694693e-38
0.73617756 0.25372946 0.61000115 1.0694693e-38
0.73880017 0.2531926 0.61000115 1.0694693e-38
0.74143231 0.2536149 0.61000115 1.0694693e-38
0.74539989 0.25328767 0.61000121 1.0694693e-38
0.74938679 0.25392461 0.61000127 1.0694693e-38
0.75205785 0.25338319 0.61000133 1.0694693e-38
0.75473875 0.25380969 0.61000133 1.0694693e-38
0.75742954 0.2532661 0.61000133 1.0694693e-38
0.76013029 0.25369394 0.61000139 1.0694693e-38
0.76284105 0.25314814 0.61000133 1.0694693e-38
0.76556182 0.25357735 0.61000139 1.0694693e-38
0.76829273 0.25302923 0.61000144 1.0694693e-38
0.77240962 0.25367597 0.61000139 1.0694693e-38
0.77654696 0.2533415 0.61000139 1.0694693e-38
0.77931893 0.25377512 0.61000139 1.0694693e-38
0.78210127 0.25322223 0.61000156 1.0694693e-38
0.78489423 0.25365728 0.6100015 1.0694693e-38
0.78769767 0.25310212 0.6100015 1.0694693e-38
0.79051173 0.25353855 0.6100015 1.0694693e-38
0.79333633 0.25397664 0.6100015 1.0694693e-38
0.79617161 0.25341889 0.61000162 1.0694693e-38
0.79901773 0.25385845 0.61000168 1.0694693e-38
0.80187476 0.25329834 0.61000162 1.0694693e-38
0.80474257 0.25373933 0.61000168 1.0694693e-38
0.80762142 0.25317687 0.61000168 1.0694693e-38
0.81051123 0.25361931 0.61000168 1.0694693e-38
0.81341225 0.2530545 0.61000168 1.0694693e-38
0.81632423 0.25349838 0.61000174 1.0694693e-38
0.81924754 0.25394401 0.61000174 1.0694693e-38
0.82218206 0.25337654 0.61000168 1.0694693e-38
0.82512796 0.25382364 0.6100018 1.0694693e-38
0.82808524 0.2532537 0.6100018 1.0694693e-38
0.83105403 0.25370231 0.6100018 1.0694693e-38
0.83403426 0.25312996 0.61000186 1.0694693e-38
0.8370263 0.25358006 0.61000186 1.0694693e-38
0.8400299 0.25300521 0.61000192 1.0694693e-38
0.84304512 0.25345683 0.61000192 1.0694693e-38
0.84607232 0.25391021 0.61000198 1.0694693e-38
0.84911144 0.25333267 0.61000192 1.0694693e-38
0.85216236 0.25378758 0.61000192 1.0694693e-38
0.85522532 0.2532075 0.61000204 1.0694693e-38
0.85830045 0.25366396 0.61000204 1.0694693e-38
0.86138779 0.25308135 0.61000198 1.0694693e-38
0.86448729 0.25353938 0.61000204 1.0694693e-38
0.86759907 0.25295419 0.61000216 1.0694693e-38
0.33143643 0.25626233 0.60999835 1.0694693e-38
0.33502102 0.25677902 0.6099984 1.0694693e-38
0.33761406 0.25639647 0.60999846 1.0694693e-38
0.34049517 0.25662962 0.60999846 1.0694693e-38
0.34311566 0.25624472 0.60999846 1.0694693e-38
0.34602743 0.25647861 0.60999852 1.0694693e-38
0.34951553 0.25655803 0.6099984 1.0694693e-38
0.35302573 0.25663882 0.60999858 1.0694693e-38
0.35585135 0.25656217 0.60999858 1.0694693e-38
0.35869211 0.25648606 0.60999858 1.0694693e-38
0.36169133 0.2567237 0.60999858 1.0694693e-38
0.36441964 0.25633165 0.60999864 1.0694693e-38
0.36730665 0.25696585 0.60999864 1.0694693e-38
0.37020931 0.25617555 0.60999864 1.0694693e-38
0.37312782 0.25681275 0.6099987 1.0694693e-38
0.37606215 0.25601774 0.6099987 1.0694693e-38
0.37901258 0.25665802 0.6099987 1.0694693e-38
0.38197929 0.25657952 0.6099987 1.0694693e-38
0.3849622 0.25650156 0.60999876 1.0694693e-38
0.38796163 0.25642219 0.60999876 1.0694693e-38
0.39097768 0.25634339 0.60999876 1.0694693e-38
0.39401042 0.25699344 0.60999876 1.0694693e-38
0.39706004 0.25618345 0.60999882 1.0694693e-38
0.40012667 0.25683668 0.60999882 1.0694693e-38
0.40321046 0.25602171 0.60999888 1.0694693e-38
0.40631154 0.25667816 0.60999888 1.0694693e-38
0.40943006 0.2565977 0.60999894 1.0694693e-38
0.41256624 0.25651783 0.60999894 1.0694693e-38
0.41572011 0.25643647 0.60999894 1.0694693e-38
0.41889179 0.2563557 0.60999894 1.0694693e-38
0.42208162 0.25702244 0.609999 1.0694693e-38
0.42448539 0.25602472 0.609999 1.0694693e-38
0.42690054 0.25652629 0.60999906 1.0694693e-38
0.43013614 0.25644392 0.60999906 1.0694693e-38
0.43339032 0.25636214 0.60999906 1.0694693e-38
0.43666333 0.25703752 0.60999918 1.0694693e-38
0.43995523 0.25619608 0.60999906 1.0694693e-38
0.44243598 0.25670466 0.60999918 1.0694693e-38
0.44492885 0.25645152 0.60999918 1.0694693e-38
0.44826874 0.2563687 0.60999918 1.0694693e-38
0.45162815 0.25705299 0.60999918 1.0694693e-38
0.4550072 0.25620049 0.60999918 1.0694693e-38
0.45755392 0.25671583 0.60999918 1.0694693e-38
0.46011311 0.25645936 0.6099993 1.0694693e-38
0.46354213 0.25715154 0.6099993 1.0694693e-38
0.46612662 0.25767279 0.6099993 1.0694693e-38
0.54741007 0.25742912 0.60999984 1.0694693e-38
0.5500508 0.25681475 0.6099999 1.0694693e-38
0.55336595 0.25604352 0.60999984 1.0694693e-38
0.55636597 0.25660264 0.6099999 1.0694693e-38
0.55937886 0.25632435 0.6099999 1.0694693e-38
0.56240773 0.25604498 0.6099999 1.0694693e-38
0.5654496 0.25660789 0.60999995 1.0694693e-38
0.56816715 0.25682855 0.61000001 1.0694693e-38
0.57157898 0.25604618 0.61000001 1.0694693e-38
0.57466686 0.25661346 0.61000001 1.0694693e-38
0.57776797 0.25633109 0.61000013 1.0694693e-38
0.58088595 0.25604767 0.61000013 1.0694693e-38
0.5840174 0.2566188 0.61000013 1.0694693e-38
0.58611417 0.25700125 0.61000007 1.0694693e-38
0.5896247 0.25620785 0.61000019 1.0694693e-38
0.59244561 0.25643227 0.61000013 1.0694693e-38
0.59528023 0.25665727 0.61000019 1.0694693e-38
0.59883946 0.25672379 0.61000019 1.0694693e-38
0.60098481 0.25624323 0.61000025 1.0694693e-38
0.60421705 0.25682417 0.61000025 1.0694693e-38
0.60746348 0.25653577 0.61000031 1.0694693e-38
0.61072803 0.25624627 0.61000025 1.0694693e-38
0.71299666 0.25659016 0.61000103 1.0694693e-38
0.7155354 0.25606713 0.61000109 1.0694693e-38
0.7180832 0.25648773 0.61000109 1.0694693e-38
0.72064024 0.25690985 0.61000103 1.0694693e-38
0.7244941 0.2565963 0.61000109 1.0694693e-38
0.72836673 0.25628066 0.61000109 1.0694693e-38
0.73096091 0.25670546 0.61000115 1.0694693e-38
0.7335645 0.25617599 0.61000109 1.0694693e-38
0.73617756 0.25660211 0.61000115 1.0694693e-38
0.73880017 0.25607052 0.61000115 1.0694693e-38
0.74143231 0.25649804 0.61000115 1.0694693e-38
0.74495798 0.25674915 0.61000127 1.0694693e-38
0.74938679 0.25682366 0.61000127 1.0694693e-38
0.75205785 0.2562876 0.61000133 1.0694693e-38
0.75473875 0.25671944 0.61000133 1.0694693e-38
0.75742954 0.25618124 0.61000133 1.0694693e-38
0.76013029 0.25661445 0.61000139 1.0694693e-38
0.76284105 0.25607407 0.61000133 1.0694693e-38
0.76556182 0.25650871 0.61000139 1.0694693e-38
0.76829278 0.25694501 0.61000144 1.0694693e-38
0.77240962 0.256621 0.61000144 1.0694693e-38
0.77654696 0.25629479 0.61000139 1.0694693e-38
0.77931893 0.25673395 0.61000139 1.0694693e-38
0.78210127 0.2561866 0.61000156 1.0694693e-38
0.78489423 0.25662726 0.6100015 1.0694693e-38
0.78769767 0.25607768 0.6100015 1.0694693e-38
0.79051173 0.25651973 0.6100015 1.0694693e-38
0.79333633 0.25696346 0.6100015 1.0694693e-38
0.79617161 0.25641137 0.61000162 1.0694693e-38
0.79901773 0.25685662 0.61000168 1.0694693e-38
0.80187476 0.25630224 0.61000162 1.0694693e-38
0.80474257 0.25674891 0.61000168 1.0694693e-38
0.80762142 0.25619224 0.61000168 1.0694693e-38
0.81051123 0.25664043 0.61000168 1.0694693e-38
0.81341225 0.2560814 0.61000168 1.0694693e-38
0.81632423 0.25653112 0.61000174 1.0694693e-38
0.81924754 0.25698256 0.61000174 1.0694693e-38
0.82218206 0.25642097 0.61000168 1.0694693e-38
0.82512796 0.25687397 0.6100018 1.0694693e-38
0.82808524 0.25630993 0.6100018 1.0694693e-38
0.83105403 0.25676447 0.6100018 1.0694693e-38
0.83403426 0.25619805 0.61000186 1.0694693e-38
0.8370263 0.25665414 0.61000186 1.0694693e-38
0.8400299 0.25608528 0.61000192 1.0694693e-38
0.84304512 0.25654292 0.61000192 1.0694693e-38
0.84607232 0.25597164 0.61000198 1.0694693e-38
0.84911144 0.25643086 0.61000192 1.0694693e-38
0.85216236 0.25689188 0.61000192 1.0694693e-38
0.85522532 0.25631791 0.61000204 1.0694693e-38
0.85830045 0.25678051 0.61000204 1.0694693e-38
0.86138779 0.25620407 0.61000198 1.0694693e-38
0.86448729 0.25666827 0.61000204 1.0694693e-38
0.86759907 0.25608927 0.61000216 1.0694693e-38
0.33162937 0.25945225 0.60999829 1.0694693e-38
0.33502102 0.25954112 0.6099984 1.0694693e-38
0.33775091 0.25947341 0.60999846 1.0694693e-38
0.3404952 0.25940633 0.6099984 1.0694693e-38
0.34339228 0.25964794 0.60999846 1.0694693e-38
0.34602743 0.25927001 0.60999852 1.0694693e-38
0.34951571 0.25959212 0.60999846 1.0694693e-38
0.35302576 0.25944892 0.60999858 1.0694693e-38
0.355993 0.25969356 0.60999858 1.0694693e-38
0.35869211 0.2593112 0.60999858 1.0694693e-38
0.36154819 0.25994998 0.60999858 1.0694693e-38
0.36441964 0.25917202 0.60999858 1.0694693e-38
0.36730665 0.2598139 0.60999864 1.0694693e-38
0.37020931 0.25903136 0.60999864 1.0694693e-38
0.37312779 0.25967634 0.6099987 1.0694693e-38
0.37591505 0.25928721 0.6099987 1.0694693e-38
0.37901258 0.25953725 0.6099987 1.0694693e-38
0.38197929 0.25946665 0.6099987 1.0694693e-38
0.3849622 0.25939664 0.60999876 1.0694693e-38
0.38811201 0.25964862 0.6099987 1.0694693e-38
0.39097768 0.25925449 0.60999876 1.0694693e-38
0.39401042 0.25991264 0.60999882 1.0694693e-38
0.39706004 0.25911075 0.60999882 1.0694693e-38
0.40012664 0.25977212 0.60999882 1.0694693e-38
0.40321043 0.25896537 0.60999888 1.0694693e-38
0.40631154 0.25963008 0.60999888 1.0694693e-38
0.40943006 0.25955793 0.60999894 1.0694693e-38
0.41256621 0.25948644 0.60999894 1.0694693e-38
0.41572011 0.25941348 0.60999894 1.0694693e-38
0.41889179 0.25934118 0.60999894 1.0694693e-38
0.42208162 0.26001635 0.609999 1.0694693e-38
0.42448539 0.25902504 0.609999 1.0694693e-38
0.42690057 0.25953305 0.60999906 1.0694693e-38
0.43013614 0.25945926 0.60999906 1.0694693e-38
0.43339032 0.25938618 0.60999906 1.0694693e-38
0.4363898 0.25976017 0.60999918 1.0694693e-38
0.4399552 0.25923759 0.60999906 1.0694693e-38
0.44243598 0.25975278 0.60999918 1.0694693e-38
0.44492888 0.25950629 0.60999918 1.0694693e-38
0.44826877 0.25943235 0.60999918 1.0694693e-38
0.45134735 0.2598114 0.60999918 1.0694693e-38
0.4550072 0.25928205 0.60999918 1.0694693e-38
0.45755392 0.25980422 0.60999918 1.0694693e-38
0.46011311 0.25955451 0.6099993 1.0694693e-38
0.46354213 0.25947976 0.60999924 1.0694693e-38
0.46670318 0.259864 0.6099993 1.0694693e-38
0.4695912 0.2599318 0.60999942 1.0694693e-38
0.5454374 0.26037988 0.60999984 1.0694693e-38
0.54741007 0.25992483 0.60999984 1.0694693e-38
0.55071259 0.25916311 0.6099999 1.0694693e-38
0.55336595 0.25938699 0.60999984 1.0694693e-38
0.55636597 0.25995412 0.6099999 1.0694693e-38
0.55937886 0.25884396 0.6099999 1.0694693e-38
0.56240773 0.2594125 0.6099999 1.0694693e-38
0.5654496 0.25998354 0.60999995 1.0694693e-38
0.56884819 0.25921091 0.61000001 1.0694693e-38
0.57157898 0.25943813 0.61000001 1.0694693e-38
0.574323 0.259666 0.61000007 1.0694693e-38
0.57776797 0.25888741 0.61000013 1.0694693e-38
0.58088595 0.25946441 0.61000013 1.0694693e-38
0.5840174 0.26004392 0.61000013 1.0694693e-38
0.58611417 0.25957423 0.61000007 1.0694693e-38
0.58927298 0.25929689 0.61000013 1.0694693e-38
0.59244561 0.2598798 0.61000013 1.0694693e-38
0.59599066 0.25909039 0.61000019 1.0694693e-38
0.59883946 0.25932223 0.61000019 1.0694693e-38
0.60098481 0.2597135 0.61000025 1.0694693e-38
0.6038571 0.25994724 0.61000025 1.0694693e-38
0.60746348 0.2591514 0.61000031 1.0694693e-38
0.6096375 0.25954503 0.61000025 1.0694693e-38
0.71299666 0.25847441 0.61000103 1.0694693e-38
0.7155354 0.2598424 0.61000109 1.0694693e-38
0.7180832 0.25932425 0.61000109 1.0694693e-38
0.72064024 0.2597515 0.61000103 1.0694693e-38
0.72449416 0.25944564 0.61000109 1.0694693e-38
0.72836673 0.25913775 0.61000109 1.0694693e-38
0.73096091 0.25956771 0.61000115 1.0694693e-38
0.7335645 0.25904346 0.61000109 1.0694693e-38
0.73617756 0.25947481 0.61000115 1.0694693e-38
0.73880017 0.25990775 0.61000115 1.0694693e-38
0.74143231 0.25938123 0.61000115 1.0694693e-38
0.7458418 0.25946316 0.61000127 1.0694693e-38
0.74938679 0.25972274 0.61000127 1.0694693e-38
0.75205785 0.25919199 0.61000133 1.0694693e-38
0.75473875 0.25962919 0.61000133 1.0694693e-38
0.7574296 0.25909635 0.61000133 1.0694693e-38
0.76013029 0.25953498 0.61000139 1.0694693e-38
0.76284111 0.25997528 0.61000133 1.0694693e-38
0.76556182 0.25944006 0.61000139 1.0694693e-38
0.76829278 0.25988179 0.61000144 1.0694693e-38
0.77240962 0.25956604 0.61000144 1.0694693e-38
0.77654696 0.25924811 0.61000139 1.0694693e-38
0.77931893 0.25969279 0.61000139 1.0694693e-38
0.78210127 0.25915101 0.61000156 1.0694693e-38
0.78489423 0.25959721 0.6100015 1.0694693e-38
0.78769767 0.25905323 0.6100015 1.0694693e-38
0.79051173 0.25950092 0.6100015 1.0694693e-38
0.79333633 0.25995028 0.6100015 1.0694693e-38
0.79617161 0.25940388 0.61000162 1.0694693e-38
0.79901773 0.25985476 0.61000168 1.0694693e-38
0.80187476 0.2593061 0.61000162 1.0694693e-38
0.80474257 0.25975853 0.61000168 1.0694693e-38
0.80762142 0.25920761 0.61000168 1.0694693e-38
0.81051123 0.25966156 0.61000168 1.0694693e-38
0.81341225 0.25910833 0.61000168 1.0694693e-38
0.81632423 0.25956386 0.61000174 1.0694693e-38
0.81924754 0.26002115 0.61000174 1.0694693e-38
0.82218206 0.2594654 0.61000168 1.0694693e-38
0.82512796 0.25992426 0.6100018 1.0694693e-38
0.82808524 0.25936615 0.6100018 1.0694693e-38
0.83105403 0.2598266 0.6100018 1.0694693e-38
0.83403426 0.25926614 0.61000186 1.0694693e-38
0.8370263 0.25972822 0.61000186 1.0694693e-38
0.8400299 0.25916535 0.61000192 1.0694693e-38
0.84304512 0.25962901 0.61000192 1.0694693e-38
0.84607232 0.25906378 0.61000198 1.0694693e-38
0.84911144 0.25952908 0.61000192 1.0694693e-38
0.85216236 0.25896141 0.61000192 1.0694693e-38
0.85522532 0.25942832 0.61000204 1.0694693e-38
0.85830045 0.25989705 0.61000204 1.0694693e-38
0.86138779 0.25932679 0.61000198 1.0694693e-38
0.86448729 0.25979722 0.61000204 1.0694693e-38
0.86759907 0.25922441 0.61000216 1.0694693e-38
0.33182284 0.26264381 0.60999835 1.0694693e-38
0.33502102 0.26230323 0.6099984 1.0694693e-38
0.33788776 0.26255161 0.60999846 1.0694693e-38
0.34049517 0.26218301 0.6099984 1.0694693e-38
0.34325397 0.26281837 0.60999846 1.0694693e-38
0.34588841 0.26244801 0.60999852 1.0694693e-38
0.34971574 0.26260558 0.60999852 1.0694693e-38
0.35302576 0.26225895 0.60999858 1.0694693e-38
0.35585135 0.2629022 0.60999858 1.0694693e-38
0.35869211 0.26213634 0.60999858 1.0694693e-38
0.36154816 0.26278275 0.60999864 1.0694693e-38
0.36427563 0.26240581 0.60999858 1.0694693e-38
0.36730665 0.26266199 0.60999864 1.0694693e-38
0.37006372 0.2622827 0.60999864 1.0694693e-38
0.37312779 0.26253992 0.6099987 1.0694693e-38
0.37606215 0.26247787 0.6099987 1.0694693e-38
0.37901258 0.26241648 0.6099987 1.0694693e-38
0.382128 0.26267576 0.6099987 1.0694693e-38
0.3849622 0.26229173 0.60999876 1.0694693e-38
0.38796163 0.26295459 0.6099987 1.0694693e-38
0.39097765 0.26216561 0.60999876 1.0694693e-38
0.39401042 0.26283178 0.60999882 1.0694693e-38
0.39706004 0.26203805 0.60999882 1.0694693e-38
0.40012667 0.26270759 0.60999882 1.0694693e-38
0.40305582 0.26231676 0.60999888 1.0694693e-38
0.40631151 0.262582 0.60999888 1.0694693e-38
0.40943003 0.26251817 0.60999894 1.0694693e-38
0.41256624 0.26245502 0.60999894 1.0694693e-38
0.41572011 0.26239043 0.60999894 1.0694693e-38
0.41889179 0.26232657 0.60999894 1.0694693e-38
0.42208159 0.26301026 0.60999906 1.0694693e-38
0.42448539 0.26202536 0.609999 1.0694693e-38
0.42690054 0.2625398 0.60999906 1.0694693e-38
0.43013614 0.26247466 0.60999906 1.0694693e-38
0.43339032 0.26241016 0.60999906 1.0694693e-38
0.43666333 0.26234427 0.60999918 1.0694693e-38
0.43995523 0.26227909 0.60999906 1.0694693e-38
0.44243598 0.26280087 0.60999918 1.0694693e-38
0.44492885 0.26256102 0.60999918 1.0694693e-38
0.44826877 0.26249599 0.60999918 1.0694693e-38
0.45162815 0.26242945 0.60999918 1.0694693e-38
0.45500723 0.26236364 0.60999918 1.0694693e-38
0.45755392 0.26289257 0.60999918 1.0694693e-38
0.46039805 0.26219299 0.6099993 1.0694693e-38
0.46354216 0.26258406 0.6099993 1.0694693e-38
0.46699148 0.26251692 0.6099993 1.0694693e-38
0.4695912 0.26227212 0.60999942 1.0694693e-38
0.47220391 0.26280779 0.6099993 1.0694693e-38
0.54478186 0.26302156 0.60999984 1.0694693e-38
0.54741007 0.26242056 0.60999984 1.0694693e-38
0.55038172 0.26215833 0.6099999 1.0694693e-38
0.55336595 0.26273048 0.60999984 1.0694693e-38
0.55603194 0.26296204 0.6099999 1.0694693e-38
0.55937886 0.26220345 0.6099999 1.0694693e-38
0.56240773 0.26278007 0.6099999 1.0694693e-38
0.5654496 0.26251528 0.60999995 1.0694693e-38
0.56850767 0.26224947 0.61000001 1.0694693e-38
0.57157898 0.26283011 0.61000001 1.0694693e-38
0.57501072 0.26206142 0.61000007 1.0694693e-38
0.57776797 0.2622959 0.61000013 1.0694693e-38
0.58088595 0.26288116 0.61000013 1.0694693e-38
0.5840174 0.26261273 0.61000013 1.0694693e-38
0.58611417 0.26214725 0.61000007 1.0694693e-38
0.58927298 0.26273599 0.61000013 1.0694693e-38
0.59244561 0.26246545 0.61000013 1.0694693e-38
0.59563547 0.26219386 0.61000019 1.0694693e-38
0.59883946 0.26278678 0.61000019 1.0694693e-38
0.60098481 0.2623162 0.61000025 1.0694693e-38
0.604577 0.26239827 0.61000025 1.0694693e-38
0.60746348 0.26176703 0.61000031 1.0694693e-38
0.7180832 0.26216084 0.61000109 1.0694693e-38
0.72064024 0.26259315 0.61000103 1.0694693e-38
0.72406489 0.26285532 0.61000109 1.0694693e-38
0.72836673 0.26199484 0.61000109 1.0694693e-38
0.73096091 0.26242995 0.61000115 1.0694693e-38
0.7335645 0.26286674 0.61000109 1.0694693e-38
0.73617756 0.26234749 0.61000115 1.0694693e-38
0.73880017 0.26278567 0.61000115 1.0694693e-38
0.74143231 0.26226443 0.61000115 1.0694693e-38
0.74495798 0.26252958 0.61000127 1.0694693e-38
0.74938679 0.26262179 0.61000127 1.0694693e-38
0.75205785 0.26209638 0.61000133 1.0694693e-38
0.75473875 0.26253894 0.61000133 1.0694693e-38
0.7574296 0.26298317 0.61000133 1.0694693e-38
0.76013029 0.26245549 0.61000139 1.0694693e-38
0.76284111 0.26290122 0.61000133 1.0694693e-38
0.76556182 0.26237142 0.61000139 1.0694693e-38
0.76829278 0.26281863 0.61000144 1.0694693e-38
0.77240962 0.26251107 0.61000144 1.0694693e-38
0.77654696 0.2622014 0.61000139 1.0694693e-38
0.77931893 0.26265162 0.61000139 1.0694693e-38
0.78210127 0.26211542 0.61000156 1.0694693e-38
0.78489423 0.26256716 0.6100015 1.0694693e-38
0.78769767 0.26202878 0.6100015 1.0694693e-38
0.79051173 0.26248211 0.6100015 1.0694693e-38
0.79333633 0.26293713 0.6100015 1.0694693e-38
0.79617161 0.26239634 0.61000162 1.0694693e-38
0.79901773 0.26285294 0.61000168 1.0694693e-38
0.80187476 0.26230997 0.61000162 1.0694693e-38
0.80474257 0.26276815 0.61000168 1.0694693e-38
0.80762142 0.26222295 0.61000168 1.0694693e-38
0.81051123 0.26268268 0.61000168 1.0694693e-38
0.81341225 0.26213527 0.61000168 1.0694693e-38
0.81632423 0.26259658 0.61000174 1.0694693e-38
0.81924754 0.26204687 0.61000174 1.0694693e-38
0.82218206 0.26250982 0.61000168 1.0694693e-38
0.82512796 0.26297456 0.6100018 1.0694693e-38
0.82808524 0.26242235 0.6100018 1.0694693e-38
0.83105403 0.26288873 0.6100018 1.0694693e-38
0.83403426 0.26233423 0.61000186 1.0694693e-38
0.8370263 0.2628023 0.61000186 1.0694693e-38
0.8400299 0.26224542 0.61000192 1.0694693e-38
0.84304512 0.2627151 0.61000192 1.0694693e-38
0.84607232 0.26215589 0.61000198 1.0694693e-38
0.84911144 0.2626273 0.61000192 1.0694693e-38
0.85216236 0.26206571 0.61000192 1.0694693e-38
0.85522532 0.26253873 0.61000204 1.0694693e-38
0.85830045 0.26197475 0.61000204 1.0694693e-38
0.86138779 0.2624495 0.61000198 1.0694693e-38
0.86448729 0.2629261 0.61000204 1.0694693e-38
0.86759907 0.26235956 0.61000216 1.0694693e-38
0.33162954 0.2656472 0.6099984 1.0694693e-38
0.33488488 0.26544747 0.6099984 1.0694693e-38
0.33775091 0.26570499 0.60999846 1.0694693e-38
0.34035763 0.26534384 0.6099984 1.0694693e-38
0.34325397 0.26560241 0.60999846 1.0694693e-38
0.34602743 0.26555026 0.60999852 1.0694693e-38
0.34951568 0.26566091 0.60999846 1.0694693e-38
0.35302573 0.26506901 0.60999858 1.0694693e-38
0.35585135 0.26571977 0.60999858 1.0694693e-38
0.35854968 0.26535231 0.60999858 1.0694693e-38
0.36154819 0.26561546 0.60999858 1.0694693e-38
0.36441961 0.26556242 0.60999858 1.0694693e-38
0.36730665 0.26551008 0.60999864 1.0694693e-38
0.37020931 0.26545644 0.60999864 1.0694693e-38
0.37312782 0.26540351 0.6099987 1.0694693e-38
0.37626132 0.26561454 0.61008805 1.0694693e-38
0.37901258 0.26529574 0.6099987 1.0694693e-38
0.38197929 0.26596323 0.6099987 1.0694693e-38
0.3849622 0.26518682 0.60999876 1.0694693e-38
0.38796163 0.2658577 0.6099987 1.0694693e-38
0.39097765 0.2650767 0.60999876 1.0694693e-38
0.39401042 0.26575094 0.60999876 1.0694693e-38
0.39690715 0.26537031 0.60999882 1.0694693e-38
0.40012667 0.26564306 0.60999882 1.0694693e-38
0.40321043 0.26558813 0.60999888 1.0694693e-38
0.40631154 0.26553392 0.60999888 1.0694693e-38
0.40943003 0.2654784 0.60999894 1.0694693e-38
0.41256621 0.2654236 0.60999894 1.0694693e-38
0.41572008 0.26536745 0.60999894 1.0694693e-38
0.41889179 0.26531202 0.60999894 1.0694693e-38
0.42208159 0.2660042 0.60999906 1.0694693e-38
0.42448539 0.26502568 0.609999 1.0694693e-38
0.42690057 0.26554653 0.60999906 1.0694693e-38
0.43013614 0.26549 0.60999906 1.0694693e-38
0.43339032 0.26543424 0.60999906 1.0694693e-38
0.43666333 0.26537699 0.60999918 1.0694693e-38
0.43995523 0.2653206 0.60999906 1.0694693e-38
0.44243598 0.26584899 0.60999918 1.0694693e-38
0.44492885 0.26561579 0.60999918 1.0694693e-38
0.44826874 0.26555961 0.60999918 1.0694693e-38
0.45162815 0.26550204 0.60999918 1.0694693e-38
0.45500723 0.26544526 0.60999918 1.0694693e-38
0.45755392 0.26598093 0.60999918 1.0694693e-38
0.46011311 0.26497164 0.6099993 1.0694693e-38
0.46354213 0.26568839 0.60999924 1.0694693e-38
0.46727976 0.26517174 0.60999924 1.0694693e-38
0.4695912 0.26539251 0.60999942 1.0694693e-38
0.47220391 0.26593515 0.6099993 1.0694693e-38
0.47570473 0.26509386 0.6099993 1.0694693e-38
0.47834337 0.26563835 0.60999942 1.0694693e-38
0.48010957 0.26678994 0.6099993 1.0694693e-38
0.54412633 0.26566061 0.60999978 1.0694693e-38
0.54741007 0.2649163 0.60999984 1.0694693e-38
0.55038172 0.26549387 0.6099999 1.0694693e-38
0.55336595 0.26607394 0.60999984 1.0694693e-38
0.55670005 0.26532486 0.6099999 1.0694693e-38
0.55937886 0.26556292 0.6099999 1.0694693e-38
0.56207043 0.26580164 0.6099999 1.0694693e-38
0.5654496 0.26504701 0.60999995 1.0694693e-38
0.56850767 0.26563326 0.61000001 1.0694693e-38
0.57157898 0.26537406 0.61000001 1.0694693e-38
0.57466686 0.26511395 0.61000001 1.0694693e-38
0.57776797 0.26570433 0.61000013 1.0694693e-38
0.58053875 0.26594687 0.61000013 1.0694693e-38
0.5840174 0.26518154 0.61000013 1.0694693e-38
0.58611417 0.26557794 0.61000007 1.0694693e-38
0.58892125 0.26582175 0.61000013 1.0694693e-38
0.59244561 0.2650511 0.61000013 1.0694693e-38
0.59563541 0.26564988 0.61000019 1.0694693e-38
0.59883946 0.26538521 0.61000019 1.0694693e-38
0.60098481 0.26491889 0.61000025 1.0694693e-38
0.6038571 0.26516411 0.61000025 1.0694693e-38
0.7155354 0.26644915 0.61000109 1.0694693e-38
0.7180832 0.26594287 0.61000109 1.0694693e-38
0.72064024 0.2654348 0.61000103 1.0694693e-38
0.72492337 0.26553378 0.61000109 1.0694693e-38
0.72836673 0.26580426 0.61000109 1.0694693e-38
0.73096091 0.26529223 0.61000115 1.0694693e-38
0.7335645 0.2657342 0.61000109 1.0694693e-38
0.73617756 0.26522017 0.61000115 1.0694693e-38
0.73880017 0.26566359 0.61000115 1.0694693e-38
0.74143231 0.26514757 0.61000115 1.0694693e-38
0.7458418 0.26524711 0.61000127 1.0694693e-38
0.74938679 0.26552084 0.61000127 1.0694693e-38
0.75205785 0.26596889 0.61000133 1.0694693e-38
0.75473875 0.26544869 0.61000133 1.0694693e-38
0.7574296 0.26589829 0.61000133 1.0694693e-38
0.76013029 0.265376 0.61000139 1.0694693e-38
0.76284111 0.26582712 0.61000133 1.0694693e-38
0.76556182 0.26530278 0.61000139 1.0694693e-38
0.76829278 0.26575541 0.61000144 1.0694693e-38
0.77240962 0.26545611 0.61000144 1.0694693e-38
0.77654696 0.26515469 0.61000139 1.0694693e-38
0.77931893 0.26561046 0.61000139 1.0694693e-38
0.78210127 0.2650798 0.61000156 1.0694693e-38
0.78489423 0.26553714 0.6100015 1.0694693e-38
0.78769767 0.26599622 0.6100015 1.0694693e-38
0.79051173 0.26546329 0.6100015 1.0694693e-38
0.79333633 0.26592395 0.6100015 1.0694693e-38
0.79617161 0.26538885 0.61000162 1.0694693e-38
0.79901773 0.26585111 0.61000168 1.0694693e-38
0.80187476 0.26531386 0.61000162 1.0694693e-38
0.80474257 0.26577774 0.61000168 1.0694693e-38
0.80762142 0.26523829 0.61000168 1.0694693e-38
0.81051123 0.2657038 0.61000168 1.0694693e-38
0.81341225 0.26516217 0.61000168 1.0694693e-38
0.81632423 0.26562929 0.61000174 1.0694693e-38
0.81924754 0.26508543 0.61000174 1.0694693e-38
0.82218206 0.26555425 0.61000168 1.0694693e-38
0.82512796 0.26500809 0.6100018 1.0694693e-38
0.82808524 0.26547858 0.6100018 1.0694693e-38
0.83105403 0.26595092 0.6100018 1.0694693e-38
0.83403426 0.26540232 0.61000186 1.0694693e-38
0.8370263 0.26587635 0.61000186 1.0694693e-38
0.8400299 0.26532549 0.61000192 1.0694693e-38
0.84304512 0.26580119 0.61000192 1.0694693e-38
0.84607232 0.26524803 0.61000198 1.0694693e-38
0.84911144 0.26572549 0.61000192 1.0694693e-38
0.85216236 0.26517001 0.61000192 1.0694693e-38
0.85522532 0.26564914 0.61000204 1.0694693e-38
0.85830045 0.26509133 0.61000204 1.0694693e-38
0.86138779 0.26557222 0.61000198 1.0694693e-38
0.86448729 0.26501206 0.61000204 1.0694693e-38
0.86759907 0.26549467 0.61000216 1.0694693e-38
0.33162954 0.26840028 0.60999835 1.0694693e-38
0.33502102 0.26851752 0.6099984 1.0694693e-38
0.33775091 0.26847437 0.60999846 1.0694693e-38
0.34063277 0.2687405 0.6099984 1.0694693e-38
0.34325397 0.26838642 0.60999846 1.0694693e-38
0.34616646 0.26865372 0.60999858 1.0694693e-38
0.34951568 0.26846161 0.60999846 1.0694693e-38
0.35288486 0.26826745 0.60999858 1.0694693e-38
0.35585138 0.26853734 0.60999852 1.0694693e-38
0.35869211 0.26849243 0.60999858 1.0694693e-38
0.36154819 0.26844823 0.60999858 1.0694693e-38
0.36456361 0.26872039 0.60999858 1.0694693e-38
0.36730665 0.26835811 0.60999864 1.0694693e-38
0.37035483 0.26863152 0.60999864 1.0694693e-38
0.37312782 0.26826704 0.6099987 1.0694693e-38
0.37606215 0.26893899 0.6099987 1.0694693e-38
0.37901258 0.26817495 0.6099987 1.0694693e-38
0.38197929 0.26885036 0.6099987 1.0694693e-38
0.3849622 0.2680819 0.60999876 1.0694693e-38
0.38796163 0.26876074 0.6099987 1.0694693e-38
0.39082646 0.26839012 0.60999882 1.0694693e-38
0.39401042 0.26867014 0.60999876 1.0694693e-38
0.39706004 0.26862395 0.60999882 1.0694693e-38
0.40012664 0.2685785 0.60999882 1.0694693e-38
0.40321043 0.26853183 0.60999882 1.0694693e-38
0.40631154 0.26848587 0.60999888 1.0694693e-38
0.40943003 0.26843864 0.60999894 1.0694693e-38
0.41256621 0.26839218 0.60999894 1.0694693e-38
0.41572011 0.2683444 0.60999894 1.0694693e-38
0.41889179 0.26829743 0.60999894 1.0694693e-38
0.42208159 0.26899812 0.60999906 1.0694693e-38
0.42448539 0.26802599 0.609999 1.0694693e-38
0.42690057 0.26855332 0.60999906 1.0694693e-38
0.43013614 0.26850536 0.60999906 1.0694693e-38
0.43339032 0.26845825 0.60999906 1.0694693e-38
0.43666333 0.26840973 0.60999918 1.0694693e-38
0.43995523 0.2683621 0.60999906 1.0694693e-38
0.44243598 0.26889712 0.60999918 1.0694693e-38
0.44520637 0.26822126 0.60999918 1.0694693e-38
0.44826874 0.26862329 0.60999918 1.0694693e-38
0.45162815 0.26857463 0.60999918 1.0694693e-38
0.45500723 0.26852682 0.60999918 1.0694693e-38
0.45755392 0.26906928 0.60999918 1.0694693e-38
0.46011311 0.26806682 0.6099993 1.0694693e-38
0.46354213 0.26879269 0.6099993 1.0694693e-38
0.46699148 0.26796609 0.60999924 1.0694693e-38
0.4695912 0.26851293 0.60999942 1.0694693e-38
0.47191301 0.26874053 0.6099993 1.0694693e-38
0.47570473 0.26823056 0.6099993 1.0694693e-38
0.47834337 0.26878208 0.60999942 1.0694693e-38
0.48099524 0.2685481 0.60999936 1.0694693e-38
0.48454881 0.26849902 0.60999942 1.0694693e-38
0.48722726 0.26984712 0.60999948 1.0694693e-38
0.54151046 0.26873744 0.60999984 1.0694693e-38
0.5444541 0.26849076 0.60999978 1.0694693e-38
0.54741007 0.26824391 0.60999984 1.0694693e-38
0.55038172 0.26882941 0.6099999 1.0694693e-38
0.55336595 0.26858157 0.60999984 1.0694693e-38
0.55636597 0.26833278 0.6099999 1.0694693e-38
0.55937886 0.26892242 0.6099999 1.0694693e-38
0.56274498 0.26817736 0.60999995 1.0694693e-38
0.5654496 0.26842266 0.60999995 1.0694693e-38
0.56816715 0.26866868 0.61000001 1.0694693e-38
0.57157898 0.26791805 0.61000001 1.0694693e-38
0.57466686 0.26851416 0.61000007 1.0694693e-38
0.57776797 0.26911277 0.61000013 1.0694693e-38
0.58123314 0.26835737 0.61000007 1.0694693e-38
0.5840174 0.26860666 0.61000013 1.0694693e-38
0.58611417 0.26900861 0.61000007 1.0694693e-38
0.5896247 0.26824796 0.61000019 1.0694693e-38
0.59244561 0.26849863 0.61000013 1.0694693e-38
0.59528023 0.26875004 0.61000019 1.0694693e-38
0.59883946 0.26798362 0.61000019 1.0694693e-38
0.60098481 0.26838917 0.61000025 1.0694693e-38
0.60313725 0.26792711 0.61000025 1.0694693e-38
0.71299666 0.26977998 0.61000103 1.0694693e-38
0.7155354 0.26833677 0.61000109 1.0694693e-38
0.7180832 0.26877943 0.61000109 1.0694693e-38
0.72064024 0.26827645 0.61000103 1.0694693e-38
0.72406489 0.2685523 0.61000109 1.0694693e-38
0.72836673 0.26866135 0.61000109 1.0694693e-38
0.73096091 0.2681545 0.61000115 1.0694693e-38
0.7335645 0.26860166 0.61000109 1.0694693e-38
0.73617756 0.26809284 0.61000115 1.0694693e-38
0.73880017 0.26854151 0.61000115 1.0694693e-38
0.74143231 0.26803076 0.61000115 1.0694693e-38
0.74539989 0.26870686 0.61000121 1.0694693e-38
0.74938679 0.26841992 0.61000127 1.0694693e-38
0.75205785 0.26887327 0.61000133 1.0694693e-38
0.75473875 0.26835844 0.61000133 1.0694693e-38
0.7574296 0.2688134 0.61000133 1.0694693e-38
0.76013029 0.26829651 0.61000139 1.0694693e-38
0.76284111 0.26875305 0.61000133 1.0694693e-38
0.76556182 0.26823413 0.61000139 1.0694693e-38
0.76829278 0.26869226 0.61000144 1.0694693e-38
0.77240962 0.26840115 0.61000144 1.0694693e-38
0.77654696 0.26810801 0.61000139 1.0694693e-38
0.77931893 0.26856929 0.61000139 1.0694693e-38
0.78210127 0.26804417 0.61000156 1.0694693e-38
0.78489423 0.26850712 0.6100015 1.0694693e-38
0.78769767 0.2689718 0.6100015 1.0694693e-38
0.79051173 0.26844448 0.6100015 1.0694693e-38
0.79333633 0.26891077 0.6100015 1.0694693e-38
0.79617161 0.26838133 0.61000162 1.0694693e-38
0.79901773 0.26884928 0.61000168 1.0694693e-38
0.80187476 0.26831776 0.61000162 1.0694693e-38
0.80474257 0.26878732 0.61000168 1.0694693e-38
0.80762142 0.26825365 0.61000168 1.0694693e-38
0.81051123 0.26872492 0.61000168 1.0694693e-38
0.81341225 0.26818907 0.61000168 1.0694693e-38
0.81632423 0.26866204 0.61000174 1.0694693e-38
0.81924754 0.26812398 0.61000174 1.0694693e-38
0.82218206 0.26859868 0.61000168 1.0694693e-38
0.82512796 0.26805842 0.6100018 1.0694693e-38
0.82808524 0.26853481 0.6100018 1.0694693e-38
0.83105403 0.26799232 0.6100018 1.0694693e-38
0.83403426 0.26847041 0.61000186 1.0694693e-38
0.8370263 0.26895043 0.61000186 1.0694693e-38
0.8400299 0.26840556 0.61000192 1.0694693e-38
