# .PCD v0.7 - Point Cloud Data file format
VERSION 0.7
FIELDS x y z rgb
SIZE 4 4 4 4
TYPE F F F F
COUNT 1 1 1 1
WIDTH 1004
HEIGHT 1
VIEWPOINT 0 0 0 1 0 0 0
POINTS 1004
DATA ascii
0.70043844 -0.15448251 0.61000097 1.0879084e-38
0.7029323 -0.15479627 0.61000091 1.0879084e-38
0.70669067 -0.15433118 0.61000103 1.0879084e-38
0.7104671 -0.15480378 0.61000103 1.0879084e-38
0.71299666 -0.1541782 0.61000103 1.0879084e-38
0.7155354 -0.15449421 0.61000109 1.0879084e-38
0.7180832 -0.15481137 0.61000109 1.0879084e-38
0.72064012 -0.15418243 0.61000109 1.0879084e-38
0.7244941 -0.15465961 0.61000109 1.0879084e-38
0.72836661 -0.15418671 0.61000115 1.0879084e-38
0.73096085 -0.15450618 0.61000115 1.0879084e-38
0.73356438 -0.1548268 0.61000121 1.0879084e-38
0.73617744 -0.15419102 0.61000121 1.0879084e-38
0.73880017 -0.15451226 0.61000115 1.0879084e-38
0.74143219 -0.15483463 0.61000127 1.0879084e-38
0.74539989 -0.1543569 0.61000121 1.0879084e-38
0.74938679 -0.15484257 0.61000127 1.0879084e-38
0.75205785 -0.15419981 0.61000133 1.0879084e-38
0.75473875 -0.15452459 0.61000133 1.0879084e-38
0.75742954 -0.1548506 0.61000133 1.0879084e-38
0.76013023 -0.15420428 0.61000139 1.0879084e-38
0.76284099 -0.15453088 0.61000139 1.0879084e-38
0.76556182 -0.15485869 0.61000139 1.0879084e-38
0.76829273 -0.15420879 0.61000144 1.0879084e-38
0.77240956 -0.15470207 0.61000144 1.0879084e-38
0.77654684 -0.15421335 0.6100015 1.0879084e-38
0.77931893 -0.15454367 0.61000139 1.097128e-38
0.78210127 -0.15487517 0.61000156 1.097128e-38
0.78489417 -0.15421797 0.61000156 1.0879084e-38
0.78769761 -0.15455016 0.6100015 1.097128e-38
0.79051155 -0.15488356 0.61000156 1.097128e-38
0.79333621 -0.15422264 0.61000162 1.097128e-38
0.79617161 -0.15455671 0.61000162 1.097128e-38
0.79901773 -0.15489204 0.61000168 1.097128e-38
0.80187476 -0.15422738 0.61000162 1.097128e-38
0.80474257 -0.15456335 0.61000168 1.097128e-38
0.8076213 -0.15490061 0.61000174 1.097128e-38
0.81051123 -0.15423214 0.61000168 1.097128e-38
0.81341207 -0.15457007 0.61000174 1.097128e-38
0.81632423 -0.1549093 0.61000174 1.097128e-38
0.81924754 -0.15423699 0.61000174 1.097128e-38
0.822182 -0.15457687 0.61000186 1.097128e-38
0.82512796 -0.15491809 0.6100018 1.097128e-38
0.82808524 -0.15424187 0.6100018 1.097128e-38
0.83105397 -0.15458374 0.61000192 1.097128e-38
0.83403426 -0.15492696 0.61000186 1.097128e-38
0.83702624 -0.15424681 0.61000192 1.097128e-38
0.8400299 -0.15459071 0.61000192 1.097128e-38
0.84304512 -0.15493594 0.61000192 1.097128e-38
0.84607232 -0.15425181 0.61000198 1.097128e-38
0.84911144 -0.15459776 0.61000192 1.097128e-38
0.85216236 -0.15494503 0.61000192 1.097128e-38
0.85522527 -0.15425687 0.6100021 1.097128e-38
0.85830039 -0.15460485 0.61000204 1.097128e-38
0.86138767 -0.15495422 0.6100021 1.097128e-38
0.86448729 -0.15426201 0.61000204 1.097128e-38
0.86759907 -0.15461206 0.61000216 1.097128e-38
0.33162948 -0.15144376 0.60999852 1.0786889e-38
0.33515716 -0.15162091 0.60999858 1.0786889e-38
0.33775091 -0.1510859 0.60999852 1.0786889e-38
0.34049511 -0.15154259 0.60999858 1.0879084e-38
0.34339222 -0.15160683 0.60999858 1.0879084e-38
0.34602737 -0.15106753 0.60999864 1.0879084e-38
0.34951568 -0.15164341 0.60999864 1.0879084e-38
0.35281396 -0.15123129 0.60992402 1.0325911e-38
0.35585126 -0.15128052 0.6099987 1.0879084e-38
0.35869205 -0.15174571 0.6099987 1.0879084e-38
0.36154813 -0.15150474 0.6099987 1.0879084e-38
0.36441952 -0.15126342 0.6099987 1.0879084e-38
0.36730659 -0.15173233 0.60999876 1.0879084e-38
0.37020925 -0.15148935 0.6099987 1.0879084e-38
0.3731277 -0.15124601 0.60999882 1.0879084e-38
0.3760621 -0.15171871 0.60999882 1.0879084e-38
0.37901253 -0.15147369 0.60999882 1.0879084e-38
0.38197917 -0.15122831 0.60999882 1.0879084e-38
0.38496214 -0.15170488 0.60999888 1.0879084e-38
0.38796163 -0.15145779 0.60999888 1.0879084e-38
0.39097768 -0.15121034 0.60999882 1.0879084e-38
0.39401034 -0.15169081 0.60999894 1.0879084e-38
0.39705998 -0.15144162 0.60999894 1.0879084e-38
0.40012661 -0.15119205 0.60999894 1.0879084e-38
0.40321034 -0.15167651 0.60999894 1.0879084e-38
0.40631148 -0.15142518 0.60999894 1.0879084e-38
0.40943003 -0.15117346 0.60999894 1.0879084e-38
0.41256613 -0.15166195 0.60999906 1.0879084e-38
0.41571999 -0.15140845 0.60999906 1.0879084e-38
0.41889179 -0.15115456 0.60999906 1.0879084e-38
0.42208159 -0.15164718 0.60999906 1.0879084e-38
0.42448533 -0.15201837 0.60999918 1.0879084e-38
0.42690045 -0.150888 0.60999906 1.0879084e-38
0.43013608 -0.15138336 0.60999918 1.0879084e-38
0.43339032 -0.15188159 0.60999912 1.0879084e-38
0.43693677 -0.15116037 0.60999918 1.0879084e-38
0.43995512 -0.15136594 0.60999918 1.0879084e-38
0.44243598 -0.15174246 0.60999924 1.0879084e-38
0.44465125 -0.15182394 0.60999924 1.0879084e-38
0.44826871 -0.15109587 0.60999924 1.0879084e-38
0.45162803 -0.15160125 0.6099993 1.0879084e-38
0.4547247 -0.15181012 0.6099993 1.0879084e-38
0.4575538 -0.15094852 0.60999936 1.0879084e-38
0.46011305 -0.15133014 0.60999936 1.0879084e-38
0.46354207 -0.15184142 0.60999942 1.0879084e-38
0.46727967 -0.15110086 0.60999936 1.0879084e-38
0.46959114 -0.15118317 0.60999942 1.0879084e-38
0.47220379 -0.15156926 0.60999942 1.0879084e-38
0.47541204 -0.15178178 0.60999942 1.0879084e-38
0.47834337 -0.15090469 0.60999948 1.0879084e-38
0.48099515 -0.15129302 0.60999948 1.0879084e-38
0.48454875 -0.15181343 0.60999954 1.0879084e-38
0.48722714 -0.15220568 0.60999954 1.0879084e-38
0.48991919 -0.15101263 0.60999954 1.0879084e-38
0.49352658 -0.15153612 0.60999954 1.0879084e-38
0.49624586 -0.15193072 0.60999954 1.0879084e-38
0.49897879 -0.15152703 0.6099996 1.0879084e-38
0.50264132 -0.15125458 0.60999966 1.0879084e-38
0.50540215 -0.15165153 0.60999966 1.0879084e-38
0.50817716 -0.15205054 0.60999966 1.0879084e-38
0.51189601 -0.15096873 0.60999972 1.0879084e-38
0.51469958 -0.15136808 0.60999972 1.0879084e-38
0.51751739 -0.15176947 0.60999972 1.0879084e-38
0.520347 -0.15217257 0.60999972 1.0879084e-38
0.52350777 -0.15126254 0.60999978 1.0879084e-38
0.52700299 -0.15148409 0.60999978 1.0879084e-38
0.52987671 -0.15188961 0.60999984 1.0879084e-38
0.53244382 -0.15197761 0.60999978 1.0879084e-38
0.53566623 -0.15105845 0.6099999 1.0879084e-38
0.53858227 -0.15146607 0.6099999 1.0879084e-38
0.5415104 -0.15187541 0.6099999 1.0879084e-38
0.54412627 -0.1519642 0.6099999 1.0879084e-38
0.54741007 -0.15103631 0.60999984 1.0879084e-38
0.55038166 -0.15144774 0.6099999 1.0879084e-38
0.55336595 -0.15186092 0.6099999 1.0879084e-38
0.55603188 -0.15195052 0.61000001 1.0879084e-38
0.55937874 -0.1510137 0.60999995 1.0879084e-38
0.56240767 -0.15142904 0.61000001 1.0879084e-38
0.56544954 -0.15184616 0.61000001 1.0879084e-38
0.56816709 -0.15193659 0.61000001 1.0879084e-38
0.57157892 -0.15099066 0.61000007 1.0879084e-38
0.5746668 -0.15140998 0.61000013 1.0879084e-38
0.57776791 -0.15183109 0.61000013 1.0879084e-38
0.58053869 -0.15192239 0.61000013 1.0879084e-38
0.58401734 -0.15096718 0.61000019 1.0879084e-38
0.58611411 -0.15124913 0.61000019 1.0879084e-38
0.58927292 -0.15167387 0.61000013 1.0879084e-38
0.59244549 -0.15210046 0.61000019 1.0879084e-38
0.5959906 -0.15113643 0.61000031 1.0879084e-38
0.5988394 -0.15122792 0.61000025 1.0879084e-38
0.60098481 -0.15151355 0.61000025 1.0879084e-38
0.60421693 -0.15194385 0.61000031 1.0879084e-38
0.60746348 -0.15150419 0.61000031 1.0879084e-38
0.61072803 -0.15106258 0.61000025 1.0879084e-38
0.614007 -0.15149474 0.61000031 1.0879084e-38
0.61620271 -0.15178415 0.61000037 1.0879084e-38
0.61914253 -0.15187806 0.61000043 1.0879084e-38
0.62283397 -0.15089393 0.61000043 1.0879084e-38
0.62505925 -0.15118425 0.61000043 1.0879084e-38
0.62841213 -0.1516217 0.61000043 1.0879084e-38
0.63178021 -0.15206113 0.61000049 1.0879084e-38
0.63403559 -0.15146582 0.61000049 1.0879084e-38
0.63781261 -0.15136103 0.61000049 1.0879084e-38
0.64084798 -0.151456 0.61000055 1.0879084e-38
0.64313424 -0.15175122 0.61000055 1.0879084e-38
0.64619547 -0.151847 0.61000061 1.0879084e-38
0.65003991 -0.1517428 0.61000061 1.0879084e-38
0.65235758 -0.15113878 0.61000061 1.0879084e-38
0.65468317 -0.151436 0.61000067 1.0879084e-38
0.65818763 -0.1518839 0.61000067 1.0879084e-38
0.6617083 -0.15142588 0.61000061 1.0879084e-38
0.66406608 -0.15172563 0.61000073 1.0879084e-38
0.66761923 -0.15126547 0.61000079 1.0879084e-38
0.67118895 -0.15171695 0.61000073 1.0879084e-38
0.67357969 -0.15201932 0.61000073 1.0879084e-38
0.67597878 -0.15140526 0.61000085 1.0879084e-38
0.67999697 -0.15129699 0.61000085 1.0879084e-38
0.68322659 -0.15139478 0.61000085 1.0879084e-38
0.68565959 -0.15169926 0.61000091 1.0879084e-38
0.68810111 -0.15200481 0.61000085 1.0879084e-38
0.69055122 -0.15138423 0.61000091 1.0879084e-38
0.69465476 -0.15127473 0.61000091 1.0879084e-38
0.69795352 -0.15137354 0.61000091 1.0879084e-38
0.70043844 -0.15168121 0.61000097 1.0879084e-38
0.7029323 -0.15198998 0.61000091 1.0879084e-38
0.70669067 -0.15151739 0.61000103 1.0879084e-38
0.7104671 -0.15104198 0.61000103 1.0879084e-38
0.71299666 -0.15135181 0.61000103 1.0879084e-38
0.7155354 -0.15166277 0.61000109 1.0879084e-38
0.7180832 -0.15197483 0.61000109 1.0879084e-38
0.72064012 -0.15134077 0.61000109 1.0879084e-38
0.72492337 -0.15122879 0.61000109 1.0879084e-38
0.72836661 -0.15132962 0.61000115 1.0879084e-38
0.73096085 -0.15164392 0.61000115 1.0879084e-38
0.73356438 -0.15195933 0.61000121 1.0879084e-38
0.73617744 -0.15131834 0.61000121 1.0879084e-38
0.73880017 -0.15163434 0.61000115 1.0879084e-38
0.74143219 -0.1509904 0.61000127 1.0879084e-38
0.74539989 -0.1514658 0.61000121 1.0879084e-38
0.74938679 -0.1519435 0.61000127 1.0879084e-38
0.75205785 -0.15129542 0.61000133 1.0879084e-38
0.75473875 -0.15161486 0.61000133 1.0879084e-38
0.75742954 -0.15193549 0.61000133 1.0879084e-38
0.76013023 -0.15128377 0.61000139 1.0879084e-38
0.76284099 -0.15160495 0.61000139 1.0879084e-38
0.76556182 -0.15192734 0.61000139 1.0879084e-38
0.76829273 -0.15127198 0.61000144 1.0879084e-38
0.77240956 -0.15175703 0.61000144 1.0879084e-38
0.77654684 -0.15126006 0.6100015 1.0879084e-38
0.77931893 -0.15158483 0.61000139 1.0879084e-38
0.78210127 -0.15191078 0.61000156 1.0879084e-38
0.78489417 -0.15124801 0.61000156 1.0879084e-38
0.78769761 -0.1515746 0.6100015 1.0879084e-38
0.79051155 -0.15190238 0.61000156 1.0879084e-38
0.79333621 -0.15123582 0.61000162 1.0879084e-38
0.79617161 -0.15156423 0.61000162 1.0879084e-38
0.79901773 -0.15189387 0.61000168 1.0879084e-38
0.80187476 -0.1512235 0.61000162 1.0879084e-38
0.80474257 -0.15155375 0.61000168 1.0879084e-38
0.8076213 -0.15188526 0.61000174 1.097128e-38
0.81051123 -0.15121102 0.61000168 1.0879084e-38
0.81341207 -0.15154316 0.61000174 1.0879084e-38
0.81632423 -0.15187657 0.61000174 1.097128e-38
0.81924754 -0.15119842 0.61000174 1.097128e-38
0.822182 -0.15153244 0.61000186 1.097128e-38
0.82512796 -0.15186778 0.6100018 1.097128e-38
0.82808524 -0.15118566 0.6100018 1.097128e-38
0.83105397 -0.15152159 0.61000192 1.097128e-38
0.83403426 -0.15185887 0.61000186 1.097128e-38
0.83702624 -0.15117274 0.61000192 1.097128e-38
0.8400299 -0.15151064 0.61000192 1.097128e-38
0.84304512 -0.15184985 0.61000192 1.097128e-38
0.84607232 -0.15115967 0.61000198 1.097128e-38
0.84911144 -0.15149954 0.61000192 1.097128e-38
0.85216236 -0.15184073 0.61000192 1.097128e-38
0.85522527 -0.15114646 0.6100021 1.097128e-38
0.85830039 -0.1514883 0.61000204 1.097128e-38
0.86138767 -0.15183149 0.6100021 1.097128e-38
0.86448729 -0.15113309 0.61000204 1.097128e-38
0.86759907 -0.15147695 0.61000216 1.097128e-38
0.33162951 -0.14869069 0.60999852 1.0786889e-38
0.33488485 -0.14826125 0.60999858 1.0786889e-38
0.33775091 -0.14831653 0.60999852 1.0786889e-38
0.34049511 -0.14876591 0.60999858 1.0786889e-38
0.34311566 -0.14822052 0.60999858 1.0786889e-38
0.34602737 -0.14827612 0.60999864 1.0879084e-38
0.34951568 -0.14884269 0.60999864 1.0879084e-38
0.35302573 -0.14800777 0.6099987 1.0879084e-38
0.35585123 -0.14846297 0.6099987 1.0879084e-38
0.35869205 -0.14892058 0.6099987 1.0879084e-38
0.36140496 -0.14836603 0.6099987 1.0879084e-38
0.36441952 -0.14842302 0.6099987 1.0879084e-38
0.36730659 -0.14888424 0.60999876 1.0879084e-38
0.37006369 -0.1483251 0.6099987 1.0879084e-38
0.3731277 -0.14838243 0.60999876 1.0879084e-38
0.3760621 -0.14884731 0.60999882 1.0879084e-38
0.37886459 -0.14828348 0.60999882 1.0879084e-38
0.38197917 -0.14834118 0.60999882 1.0879084e-38
0.38496214 -0.14880979 0.60999888 1.0879084e-38
0.38796163 -0.14855471 0.60999888 1.0879084e-38
0.39097768 -0.14829925 0.60999888 1.0879084e-38
0.39401034 -0.14877163 0.60999894 1.0879084e-38
0.39705998 -0.14851433 0.60999894 1.0879084e-38
0.40012658 -0.14825659 0.60999894 1.0879084e-38
0.40321037 -0.14873284 0.60999894 1.0879084e-38
0.40631148 -0.14847325 0.60999894 1.0879084e-38
0.40943003 -0.14821324 0.60999894 1.0879084e-38
0.41256613 -0.14869338 0.60999906 1.0879084e-38
0.41571999 -0.14843148 0.60999906 1.0879084e-38
0.41889179 -0.14816913 0.60999906 1.0879084e-38
0.42208159 -0.14865325 0.60999906 1.0879084e-38
0.42448533 -0.14901806 0.60999918 1.0879084e-38
0.42690045 -0.14788124 0.60999906 1.0879084e-38
0.43013608 -0.148368 0.60999918 1.0879084e-38
0.43339032 -0.14885758 0.60999912 1.0879084e-38
0.43666321 -0.14859122 0.60999918 1.0879084e-38
0.43995515 -0.14832443 0.60999918 1.0879084e-38
0.44243598 -0.14869434 0.60999924 1.0879084e-38
0.44492877 -0.14906605 0.60999924 1.0879084e-38
0.44826868 -0.14803222 0.6099993 1.0879084e-38
0.45162809 -0.14852867 0.6099993 1.0879084e-38
0.45500714 -0.149028 0.6099993 1.0879084e-38
0.4575538 -0.14786017 0.60999936 1.0879084e-38
0.46011305 -0.14823495 0.60999936 1.0879084e-38
0.46354207 -0.1487371 0.60999942 1.0879084e-38
0.46699136 -0.14846329 0.60999936 1.0879084e-38
0.46959114 -0.14806277 0.60999942 1.0879084e-38
0.47220379 -0.14844188 0.60999942 1.0879084e-38
0.47570464 -0.14894991 0.60999942 1.0879084e-38
0.47834337 -0.14854689 0.60999948 1.0879084e-38
0.48099518 -0.14814225 0.60999954 1.0879084e-38
0.48454875 -0.14865318 0.60999954 1.0879084e-38
0.48722714 -0.14903829 0.60999954 1.0879084e-38
0.49021888 -0.14814512 0.60999954 1.0879084e-38
0.49352658 -0.14835197 0.60999954 1.0879084e-38
0.49624586 -0.14873934 0.60999954 1.0879084e-38
0.49867451 -0.14881852 0.6099996 1.0879084e-38
0.50264132 -0.14804617 0.60999966 1.0879084e-38
0.50540215 -0.14843577 0.60999966 1.0879084e-38
0.50817716 -0.14882737 0.60999966 1.0879084e-38
0.51220685 -0.14804833 0.60999972 1.0879084e-38
0.51469958 -0.14812756 0.60999972 1.0879084e-38
0.51751745 -0.14852147 0.60999978 1.0879084e-38
0.520347 -0.148917 0.60999972 1.0879084e-38
0.52287441 -0.14899816 0.60999978 1.0879084e-38
0.52700305 -0.14821079 0.60999978 1.0879084e-38
0.52987671 -0.14860867 0.60999984 1.0879084e-38
0.53276551 -0.14900866 0.60999978 1.0879084e-38
0.53566623 -0.14858618 0.6099999 1.0879084e-38
0.53858227 -0.14816196 0.6099999 1.0879084e-38
0.5415104 -0.14856349 0.6099999 1.0879084e-38
0.54445404 -0.14896715 0.6099999 1.0879084e-38
0.54741007 -0.14854059 0.60999984 1.0879084e-38
0.55038172 -0.14811221 0.6099999 1.0879084e-38
0.55336595 -0.14851744 0.6099999 1.0879084e-38
0.55636597 -0.14892483 0.61000001 1.0879084e-38
0.55937874 -0.14849409 0.60999995 1.0879084e-38
0.56240767 -0.14806148 0.61000001 1.0879084e-38
0.56544954 -0.14847051 0.61000001 1.0879084e-38
0.56850761 -0.1488817 0.61000001 1.0879084e-38
0.57157892 -0.14844669 0.61000007 1.0879084e-38
0.5746668 -0.14800979 0.61000013 1.0879084e-38
0.57776791 -0.14842266 0.61000013 1.0879084e-38
0.58088589 -0.14883775 0.61000013 1.0879084e-38
0.58401734 -0.14839837 0.61000019 1.0879084e-38
0.58611411 -0.14867611 0.61000019 1.0879084e-38
0.58927292 -0.14823478 0.61000013 1.0879084e-38
0.59244549 -0.14865293 0.61000019 1.0879084e-38
0.59528023 -0.14873831 0.61000019 1.0879084e-38
0.5988394 -0.1486295 0.61000025 1.0879084e-38
0.60098481 -0.14804327 0.61000025 1.0879084e-38
0.60421693 -0.14846498 0.61000031 1.0879084e-38
0.60746348 -0.14888856 0.61000031 1.0879084e-38
0.61072803 -0.14844042 0.61000025 1.0879084e-38
0.614007 -0.14798981 0.61000031 1.0879084e-38
0.61620271 -0.14827335 0.61000037 1.0879084e-38
0.61951095 -0.14870057 0.61000037 1.0879084e-38
0.62283397 -0.14824758 0.61000043 1.0879084e-38
0.62505925 -0.14853346 0.61000043 1.0879084e-38
0.62841213 -0.14807841 0.61000043 1.0879084e-38
0.63178027 -0.14850888 0.61000043 1.0879084e-38
0.63403559 -0.14879712 0.61000049 1.0879084e-38
0.63705564 -0.14888556 0.61000049 1.0879084e-38
0.64084798 -0.14877369 0.61000055 1.0879084e-38
0.64313424 -0.14816873 0.61000055 1.0879084e-38
0.64657915 -0.14860442 0.61000061 1.0879084e-38
0.65003991 -0.14904213 0.61000061 1.0879084e-38
0.65235758 -0.14843349 0.61000061 1.0879084e-38
0.65468317 -0.14872606 0.61000067 1.0879084e-38
0.65818763 -0.14826132 0.61000067 1.0879084e-38
0.6617083 -0.14870192 0.61000061 1.0879084e-38
0.66406608 -0.14899698 0.61000073 1.0879084e-38
0.66761923 -0.14852969 0.61000079 1.0879084e-38
0.67118895 -0.14805976 0.61000073 1.0879084e-38
0.67357969 -0.14835575 0.61000073 1.0879084e-38
0.67597878 -0.14865279 0.61000085 1.0879084e-38
0.67919159 -0.14874369 0.61000085 1.0879084e-38
0.68322659 -0.14862786 0.61000085 1.0879084e-38
0.68565959 -0.14800353 0.61000091 1.0879084e-38
0.68810111 -0.14830258 0.61000085 1.0879084e-38
0.69055122 -0.14860266 0.61000091 1.0879084e-38
0.69383234 -0.14869438 0.61000091 1.0879084e-38
0.69795352 -0.1485772 0.61000091 1.0879084e-38
0.70043844 -0.14794612 0.61000097 1.0879084e-38
0.7029323 -0.14824826 0.61000091 1.0879084e-38
0.70669067 -0.14870358 0.61000103 1.0879084e-38
0.7104671 -0.14822066 0.61000103 1.0879084e-38
0.71299666 -0.14852543 0.61000103 1.0879084e-38
0.7155354 -0.14883129 0.61000109 1.0879084e-38
0.7180832 -0.14819276 0.61000109 1.0879084e-38
0.72064012 -0.14849913 0.61000109 1.0879084e-38
0.72406483 -0.14859261 0.61000109 1.0879084e-38
0.72836661 -0.14847255 0.61000115 1.0879084e-38
0.73096085 -0.14878166 0.61000115 1.0879084e-38
0.73356438 -0.14813605 0.61000121 1.0879084e-38
0.73617744 -0.14844567 0.61000121 1.0879084e-38
0.73880017 -0.14875643 0.61000115 1.0879084e-38
0.74143219 -0.14810723 0.61000127 1.0879084e-38
0.74539989 -0.14857471 0.61000121 1.0879084e-38
0.74938679 -0.1480781 0.61000127 1.0879084e-38
0.75205785 -0.14839102 0.61000133 1.0879084e-38
0.75473875 -0.14870511 0.61000133 1.0879084e-38
0.75742954 -0.14902036 0.61000133 1.0879084e-38
0.76013023 -0.14836325 0.61000139 1.0879084e-38
0.76284099 -0.14867903 0.61000139 1.0879084e-38
0.76556182 -0.14801887 0.61000139 1.0879084e-38
0.76829273 -0.14833516 0.61000144 1.0879084e-38
0.77240956 -0.148812 0.61000144 1.0879084e-38
0.77654684 -0.14830676 0.6100015 1.0879084e-38
0.77931893 -0.148626 0.61000139 1.0879084e-38
0.78210127 -0.1489464 0.61000156 1.0879084e-38
0.78489417 -0.14827804 0.61000156 1.0879084e-38
0.78769761 -0.14859903 0.6100015 1.0879084e-38
0.79051155 -0.14892121 0.61000156 1.0879084e-38
0.79333621 -0.148249 0.61000162 1.0879084e-38
0.79617161 -0.14857173 0.61000162 1.0879084e-38
0.79901773 -0.14889571 0.61000168 1.0879084e-38
0.80187476 -0.14821962 0.61000162 1.0879084e-38
0.80474257 -0.14854415 0.61000168 1.0879084e-38
0.8076213 -0.1488699 0.61000174 1.0879084e-38
0.81051123 -0.1481899 0.61000168 1.0879084e-38
0.81341207 -0.14851624 0.61000174 1.0879084e-38
0.81632423 -0.14884384 0.61000174 1.0879084e-38
0.81924754 -0.14815986 0.61000174 1.0879084e-38
0.822182 -0.14848801 0.61000186 1.0879084e-38
0.82512796 -0.14881746 0.6100018 1.0879084e-38
0.82808524 -0.14812943 0.6100018 1.0879084e-38
0.83105397 -0.14845945 0.61000192 1.0879084e-38
0.83403426 -0.14879076 0.61000186 1.0879084e-38
0.83702624 -0.14809868 0.61000192 1.0879084e-38
0.8400299 -0.14843057 0.61000192 1.0879084e-38
0.84304512 -0.14876375 0.61000192 1.0879084e-38
0.84607232 -0.14806753 0.61000198 1.097128e-38
0.84911144 -0.14840135 0.61000192 1.097128e-38
0.85216236 -0.14873645 0.61000192 1.097128e-38
0.85522527 -0.14907284 0.6100021 1.097128e-38
0.85830039 -0.14837176 0.61000204 1.097128e-38
0.86138767 -0.14870878 0.6100021 1.097128e-38
0.86448729 -0.14800419 0.61000204 1.097128e-38
0.86759907 -0.14834182 0.61000216 1.097128e-38
0.33182281 -0.14567363 0.6099984 1.0786889e-38
0.33502102 -0.14510739 0.60999858 1.0786889e-38
0.33775091 -0.14554717 0.60999852 1.0786889e-38
0.34063268 -0.14559461 0.60999858 1.0786889e-38
0.34325397 -0.14504164 0.60999858 1.0786889e-38
0.34602737 -0.14548472 0.60999858 1.0786889e-38
0.34971571 -0.14577349 0.60999864 1.0879084e-38
0.35302573 -0.14519772 0.6099987 1.0879084e-38
0.35585123 -0.14564538 0.6099987 1.0879084e-38
0.35883445 -0.14569396 0.6099987 1.0879084e-38
0.36154813 -0.14513156 0.6099987 1.0879084e-38
0.36441955 -0.14558263 0.6099987 1.0879084e-38
0.36745128 -0.14563142 0.60999882 1.0879084e-38
0.37020925 -0.14506428 0.6099987 1.0879084e-38
0.3731277 -0.14551885 0.60999882 1.0879084e-38
0.3760621 -0.14597593 0.60999882 1.0879084e-38
0.37901253 -0.1449959 0.60999882 1.0879084e-38
0.38197917 -0.14545405 0.60999882 1.0879084e-38
0.38496214 -0.1459147 0.60999888 1.0879084e-38
0.38781124 -0.14533852 0.60999882 1.0879084e-38
0.39097765 -0.14538814 0.60999882 1.0879084e-38
0.39401034 -0.14585248 0.60999894 1.0879084e-38
0.39690709 -0.14527132 0.60999894 1.0879084e-38
0.40012658 -0.14532113 0.60999894 1.0879084e-38
0.40321034 -0.14578918 0.60999894 1.0879084e-38
0.40631151 -0.14552133 0.60999894 1.0879084e-38
0.40943003 -0.145253 0.60999894 1.0879084e-38
0.41256613 -0.1457248 0.60999906 1.0879084e-38
0.41571999 -0.14545448 0.60999906 1.0879084e-38
0.41889179 -0.14518371 0.60999906 1.0879084e-38
0.42208159 -0.14565934 0.60999906 1.0879084e-38
0.42448533 -0.14601775 0.60999918 1.0879084e-38
0.42690048 -0.1448745 0.60999906 1.0879084e-38
0.43013608 -0.14535263 0.60999918 1.0879084e-38
0.43339032 -0.14583355 0.60999912 1.0879084e-38
0.43666324 -0.14555848 0.60999918 1.0879084e-38
0.43995515 -0.14528292 0.60999918 1.0879084e-38
0.44243598 -0.14564623 0.60999924 1.0879084e-38
0.44492877 -0.14601129 0.60999924 1.0879084e-38
0.44826871 -0.14496858 0.6099993 1.0879084e-38
0.45162809 -0.14545608 0.6099993 1.0879084e-38
0.45500714 -0.14594643 0.6099993 1.0879084e-38
0.4575538 -0.14554389 0.60999936 1.0879084e-38
0.46011305 -0.14513977 0.60999936 1.0879084e-38
0.46354204 -0.1456328 0.60999942 1.0879084e-38
0.46670309 -0.14582767 0.6099993 1.0879084e-38
0.46959114 -0.14494234 0.60999942 1.0879084e-38
0.47220379 -0.14531451 0.60999942 1.0879084e-38
0.47570464 -0.14581323 0.60999942 1.0879084e-38
0.47834337 -0.14618911 0.60999948 1.0879084e-38
0.48099515 -0.14499146 0.60999948 1.0879084e-38
0.48454875 -0.14549294 0.60999948 1.0879084e-38
0.48722714 -0.14587092 0.60999954 1.0879084e-38
0.48961949 -0.14594378 0.60999954 1.0879084e-38
0.49352658 -0.14516783 0.60999954 1.0879084e-38
0.49624586 -0.14554794 0.60999954 1.0879084e-38
0.49897879 -0.14592998 0.6099996 1.0879084e-38
0.50294745 -0.14514731 0.60999966 1.0879084e-38
0.50540215 -0.14522 0.60999966 1.0879084e-38
0.50817716 -0.14560422 0.60999966 1.0879084e-38
0.51158518 -0.14580645 0.60999972 1.0879084e-38
0.51469958 -0.14488703 0.60999972 1.0879084e-38
0.51751745 -0.14527343 0.60999978 1.0879084e-38
0.520347 -0.14566144 0.60999972 1.0879084e-38
0.52319109 -0.14605144 0.60999978 1.0879084e-38
0.52732164 -0.14525335 0.60999978 1.0879084e-38
0.52987671 -0.14532775 0.60999984 1.0879084e-38
0.53276551 -0.14572003 0.60999978 1.0879084e-38
0.53566623 -0.14611393 0.6099999 1.0879084e-38
0.53890699 -0.14517663 0.6099999 1.0879084e-38
0.5415104 -0.14525157 0.6099999 1.0879084e-38
0.54445404 -0.14564739 0.6099999 1.0879084e-38
0.54741007 -0.14604488 0.60999984 1.0879084e-38
0.55071259 -0.14509846 0.6099999 1.0879084e-38
0.55336595 -0.14517397 0.6099999 1.0879084e-38
0.55636597 -0.14557336 0.61000001 1.0879084e-38
0.55937874 -0.14597447 0.60999995 1.0879084e-38
0.56240767 -0.14553583 0.61000001 1.0879084e-38
0.56544954 -0.14509486 0.61000001 1.0879084e-38
0.56850761 -0.1454979 0.61000001 1.0879084e-38
0.57157892 -0.14590271 0.61000007 1.0879084e-38
0.5746668 -0.14545964 0.61000013 1.0879084e-38
0.57776791 -0.1450142 0.61000013 1.0879084e-38
0.58088589 -0.145421 0.61000013 1.0879084e-38
0.58401734 -0.14582956 0.61000019 1.0879084e-38
0.58611411 -0.14610311 0.61000019 1.0879084e-38
0.58962464 -0.14512749 0.61000019 1.0879084e-38
0.59244549 -0.14520539 0.61000019 1.0879084e-38
0.59563541 -0.14561735 0.61000025 1.0879084e-38
0.5988394 -0.14603108 0.61000025 1.0879084e-38
0.60098481 -0.14544058 0.61000025 1.0879084e-38
0.60457689 -0.14532177 0.61000031 1.0879084e-38
0.60746348 -0.14540103 0.61000031 1.0879084e-38
0.61072803 -0.14581826 0.61000025 1.0879084e-38
0.614007 -0.1453611 0.61000031 1.0879084e-38
0.61620271 -0.14564025 0.61000037 1.0879084e-38
0.61951095 -0.14518097 0.61000037 1.0879084e-38
0.62283397 -0.14560124 0.61000043 1.0879084e-38
0.62505925 -0.1458827 0.61000043 1.0879084e-38
0.62841213 -0.14542094 0.61000043 1.0879084e-38
0.63178027 -0.1449566 0.61000043 1.0879084e-38
0.63403559 -0.14523885 0.61000049 1.0879084e-38
0.63743412 -0.14566416 0.61000049 1.0879084e-38
0.64084798 -0.14609137 0.61000055 1.0879084e-38
0.64313424 -0.14548185 0.61000055 1.0879084e-38
0.64696282 -0.14535932 0.61000061 1.0879084e-38
0.65003991 -0.14544125 0.61000061 1.0879084e-38
0.65235758 -0.1457282 0.61000061 1.0879084e-38
0.65468323 -0.14601615 0.61000061 1.0879084e-38
0.65818763 -0.14554438 0.61000067 1.0879084e-38
0.6617083 -0.14506996 0.61000061 1.0879084e-38
0.66406608 -0.14535874 0.61000073 1.0879084e-38
0.66761923 -0.14579394 0.61000079 1.0879084e-38
0.67118895 -0.14531685 0.61000073 1.0879084e-38
0.67357969 -0.14560808 0.61000073 1.0879084e-38
0.67597878 -0.14498284 0.61000085 1.0879084e-38
0.67959428 -0.14542086 0.61000085 1.0879084e-38
0.68322659 -0.14586091 0.61000085 1.0879084e-38
0.68565959 -0.14523174 0.61000091 1.0879084e-38
0.68810111 -0.14552592 0.61000085 1.0879084e-38
0.69055122 -0.14582111 0.61000091 1.0879084e-38
0.69424355 -0.14533633 0.61000091 1.0879084e-38
0.69795352 -0.14578085 0.61000091 1.0879084e-38
0.70043844 -0.14514482 0.61000097 1.0879084e-38
0.7029323 -0.14544198 0.61000091 1.0879084e-38
0.70710927 -0.14531381 0.61000103 1.0879084e-38
0.7104671 -0.14539932 0.61000103 1.0879084e-38
0.71299666 -0.14569904 0.61000103 1.0879084e-38
0.7155354 -0.14599985 0.61000109 1.0879084e-38
0.7180832 -0.14535621 0.61000109 1.0879084e-38
0.72064012 -0.14565746 0.61000109 1.0879084e-38
0.7244941 -0.14516178 0.61000109 1.0879084e-38
0.72836661 -0.14561546 0.61000115 1.0879084e-38
0.73096085 -0.1459194 0.61000115 1.0879084e-38
0.73356438 -0.14526859 0.61000121 1.0879084e-38
0.73617744 -0.14557298 0.61000121 1.0879084e-38
0.73880017 -0.14587851 0.61000115 1.0879084e-38
0.74143219 -0.14522406 0.61000127 1.0879084e-38
0.74539989 -0.14568362 0.61000121 1.0879084e-38
0.74938679 -0.14517905 0.61000127 1.0879084e-38
0.75205785 -0.14548664 0.61000133 1.0879084e-38
0.75473875 -0.14579536 0.61000133 1.0879084e-38
0.75742954 -0.14513354 0.61000133 1.0879084e-38
0.76013023 -0.14544274 0.61000139 1.0879084e-38
0.76284099 -0.1457531 0.61000139 1.0879084e-38
0.76556182 -0.1450875 0.61000139 1.0879084e-38
0.76829273 -0.14539836 0.61000144 1.0879084e-38
0.77286816 -0.14526409 0.61000144 1.0879084e-38
0.77654684 -0.14535347 0.6100015 1.0879084e-38
0.77931893 -0.14566717 0.61000139 1.0879084e-38
0.78210127 -0.14598203 0.61000156 1.0879084e-38
0.78489417 -0.14530808 0.61000156 1.0879084e-38
0.78769761 -0.14562346 0.6100015 1.0879084e-38
0.79051155 -0.14594002 0.61000156 1.0879084e-38
0.79333621 -0.14526217 0.61000162 1.0879084e-38
0.79617161 -0.14557925 0.61000162 1.0879084e-38
0.79901773 -0.14589754 0.61000168 1.0879084e-38
0.80187476 -0.14521575 0.61000162 1.0879084e-38
0.80474257 -0.14553455 0.61000168 1.0879084e-38
0.8076213 -0.14585456 0.61000174 1.0879084e-38
0.81051123 -0.14516878 0.61000168 1.0879084e-38
0.81341207 -0.14548932 0.61000174 1.0879084e-38
0.81632423 -0.14581111 0.61000174 1.0879084e-38
0.81924754 -0.14512129 0.61000174 1.0879084e-38
0.822182 -0.14544359 0.61000186 1.0879084e-38
0.82512796 -0.14576715 0.6100018 1.0879084e-38
0.82808524 -0.14507322 0.6100018 1.0879084e-38
0.83105397 -0.14539731 0.61000192 1.0879084e-38
0.83403426 -0.14572266 0.61000186 1.0879084e-38
0.83702624 -0.1450246 0.61000192 1.0879084e-38
0.8400299 -0.1453505 0.61000192 1.0879084e-38
0.84304512 -0.14567767 0.61000192 1.0879084e-38
0.84607232 -0.14600612 0.61000198 1.0879084e-38
0.84911144 -0.14530313 0.61000192 1.0879084e-38
0.85216236 -0.14563215 0.61000192 1.0879084e-38
0.85522527 -0.14596242 0.6100021 1.0879084e-38
0.85830039 -0.14525519 0.61000204 1.0879084e-38
0.86138767 -0.14558606 0.6100021 1.0879084e-38
0.86448729 -0.14591825 0.61000204 1.0879084e-38
0.86759907 -0.14520669 0.61000216 1.0879084e-38
0.33162934 -0.14249574 0.60999852 1.0786889e-38
0.33502099 -0.14234529 0.60999858 1.0786889e-38
0.33775088 -0.14277779 0.60999852 1.0786889e-38
0.34035754 -0.14221881 0.60999858 1.0786889e-38
0.34325397 -0.1422576 0.60999858 1.0786889e-38
0.34602737 -0.1426933 0.60999858 1.0786889e-38
0.3495155 -0.14254056 0.60999864 1.0786889e-38
0.35302573 -0.14238767 0.6099987 1.0786889e-38
0.35585123 -0.14282781 0.6099987 1.0879084e-38
0.35854965 -0.14225923 0.6099987 1.0879084e-38
0.3615481 -0.14229882 0.6099987 1.0879084e-38
0.36441955 -0.14274225 0.6099987 1.0879084e-38
0.36730659 -0.14247561 0.60999876 1.0879084e-38
0.37020922 -0.14220847 0.6099987 1.0879084e-38
0.3731277 -0.1426553 0.60999882 1.0879084e-38
0.3762092 -0.14269608 0.60999882 1.0879084e-38
0.37901253 -0.14211664 0.60999882 1.0879084e-38
0.38197917 -0.14256689 0.60999888 1.0879084e-38
0.38496214 -0.14301963 0.60999882 1.0879084e-38
0.38796163 -0.14202332 0.60999888 1.0879084e-38
0.39097768 -0.14247705 0.60999882 1.0879084e-38
0.39401031 -0.14293328 0.60999894 1.0879084e-38
0.39705998 -0.14192842 0.60999894 1.0879084e-38
0.40012658 -0.14238568 0.60999894 1.0879084e-38
0.40321037 -0.14284551 0.60999894 1.0879084e-38
0.40631148 -0.14256939 0.60999894 1.0879084e-38
0.40943003 -0.14229278 0.60999894 1.0879084e-38
0.41256613 -0.14275621 0.60999906 1.0879084e-38
0.41571999 -0.14247751 0.60999906 1.0879084e-38
0.41889179 -0.14219829 0.60999906 1.0879084e-38
0.42208159 -0.14266542 0.60999906 1.0879084e-38
0.42448533 -0.14301743 0.60999918 1.0879084e-38
0.42716932 -0.14215714 0.60999912 1.0879084e-38
0.43013608 -0.14233728 0.60999918 1.0879084e-38
0.43339029 -0.14280951 0.60999912 1.0879084e-38
0.43666321 -0.14252573 0.60999918 1.0879084e-38
0.43995515 -0.14224142 0.60999918 1.0879084e-38
0.44243598 -0.14259812 0.60999924 1.0879084e-38
0.44492877 -0.14295654 0.60999924 1.0879084e-38
0.44826871 -0.14190494 0.6099993 1.0879084e-38
0.45162809 -0.14238349 0.6099993 1.0879084e-38
0.45500714 -0.14286484 0.6099993 1.0879084e-38
0.4575538 -0.14322761 0.60999936 1.0879084e-38
0.46011305 -0.14204459 0.6099993 1.0879084e-38
0.46354207 -0.14252849 0.60999942 1.0879084e-38
0.46699136 -0.14301527 0.6099993 1.0879084e-38
0.46959114 -0.14182192 0.60999942 1.0879084e-38
0.47220379 -0.14218713 0.60999942 1.0879084e-38
0.47570464 -0.14267652 0.60999942 1.0879084e-38
0.47834337 -0.14304538 0.60999948 1.0879084e-38
0.48129037 -0.14214392 0.60999948 1.0879084e-38
0.48454875 -0.1423327 0.60999948 1.0879084e-38
0.48722714 -0.14270355 0.60999954 1.0879084e-38
0.48991919 -0.14307627 0.60999954 1.0879084e-38
0.49352658 -0.14198367 0.6099996 1.0879084e-38
0.49624586 -0.14235654 0.60999954 1.0879084e-38
0.49897879 -0.14273131 0.6099996 1.0879084e-38
0.50233519 -0.142924 0.60999966 1.0879084e-38
0.50540215 -0.14200422 0.60999966 1.0879084e-38
0.50817716 -0.14238106 0.60999966 1.0879084e-38
0.51189601 -0.14288607 0.60999972 1.0879084e-38
0.51469958 -0.14245664 0.60999972 1.0879084e-38
0.51751745 -0.14202541 0.60999978 1.0879084e-38
0.520347 -0.14240588 0.60999972 1.0879084e-38
0.52319109 -0.14278831 0.60999978 1.0879084e-38
0.5266844 -0.14298503 0.60999978 1.0879084e-38
0.52987671 -0.14204681 0.60999984 1.0879084e-38
0.53276545 -0.14243139 0.60999978 1.0879084e-38
0.53566623 -0.14281759 0.6099999 1.0879084e-38
0.5382576 -0.14288701 0.6099999 1.0879084e-38
0.5415104 -0.14193967 0.6099999 1.0879084e-38
0.54445404 -0.14232764 0.6099999 1.0879084e-38
0.54741007 -0.14271724 0.60999984 1.0879084e-38
0.5500508 -0.14278711 0.6099999 1.0879084e-38
0.55336595 -0.14266635 0.6099999 1.0879084e-38
0.55636597 -0.14222188 0.61000001 1.0879084e-38
0.55937874 -0.14261499 0.60999995 1.0879084e-38
0.56240767 -0.14301015 0.61000001 1.0879084e-38
0.56544954 -0.14256312 0.61000001 1.0879084e-38
0.56850761 -0.14211412 0.61000001 1.0879084e-38
0.57157892 -0.14251074 0.61000007 1.0879084e-38
0.5746668 -0.1429095 0.61000013 1.0879084e-38
0.57776791 -0.14245786 0.61000013 1.0879084e-38
0.58088589 -0.14200424 0.61000013 1.0879084e-38
0.58401734 -0.14240447 0.61000019 1.0879084e-38
0.58611411 -0.14267243 0.61000019 1.0879084e-38
0.58892119 -0.14274438 0.61000013 1.0879084e-38
0.59244549 -0.14261974 0.61000019 1.0879084e-38
0.59563541 -0.14216131 0.61000025 1.0879084e-38
0.5988394 -0.14256653 0.61000025 1.0879084e-38
0.60098481 -0.14283788 0.61000025 1.0879084e-38
0.60385704 -0.14291097 0.61000031 1.0879084e-38
0.60746348 -0.14191352 0.61000031 1.0879084e-38
0.61072803 -0.14232205 0.61000025 1.0879084e-38
0.614007 -0.14273238 0.61000031 1.0879084e-38
0.61620271 -0.14300716 0.61000037 1.0879084e-38
0.61951095 -0.14254127 0.61000037 1.0879084e-38
0.62283397 -0.1420728 0.61000043 1.0879084e-38
0.62505925 -0.14234832 0.61000043 1.0879084e-38
0.62841213 -0.14276347 0.61000043 1.0879084e-38
0.63178027 -0.1422924 0.61000043 1.0879084e-38
0.63403559 -0.14257014 0.61000049 1.0879084e-38
0.63743412 -0.14209683 0.61000049 1.0879084e-38
0.64084798 -0.14251496 0.61000055 1.0879084e-38
0.64313424 -0.14279498 0.61000055 1.0879084e-38
0.64619547 -0.14287037 0.61000061 1.0879084e-38
0.65003991 -0.14274058 0.61000061 1.0879084e-38
0.65235758 -0.14212114 0.61000061 1.0879084e-38
0.65468323 -0.1424029 0.61000061 1.0879084e-38
0.65818763 -0.14282745 0.61000067 1.0879084e-38
0.6617083 -0.14234599 0.61000061 1.0879084e-38
0.66406608 -0.14263006 0.61000073 1.0879084e-38
0.66761923 -0.14214624 0.61000073 1.0879084e-38
0.67118895 -0.14257395 0.61000073 1.0879084e-38
0.67357969 -0.14286041 0.61000073 1.0879084e-38
0.67597878 -0.14223038 0.61000085 1.0879084e-38
0.67959428 -0.14266118 0.61000085 1.0879084e-38
0.68322659 -0.14217167 0.61000085 1.0879084e-38
0.68565959 -0.14245994 0.61000091 1.0879084e-38
0.68810111 -0.14274924 0.61000085 1.0879084e-38
0.69055122 -0.14303954 0.61000091 1.0879084e-38
0.69424355 -0.1425474 0.61000091 1.0879084e-38
0.69795352 -0.14205238 0.61000091 1.0879084e-38
0.70043844 -0.14234352 0.61000097 1.0879084e-38
0.7029323 -0.14263567 0.61000091 1.0879084e-38
0.70627207 -0.14271402 0.61000103 1.0879084e-38
0.7104671 -0.14257798 0.61000103 1.0879084e-38
0.71299666 -0.14287265 0.61000103 1.0879084e-38
0.7155354 -0.14222457 0.61000109 1.0879084e-38
0.7180832 -0.14251965 0.61000109 1.0879084e-38
0.72064012 -0.14281583 0.61000109 1.0879084e-38
0.7244941 -0.14231244 0.61000109 1.0879084e-38
0.72836661 -0.14275838 0.61000115 1.0879084e-38
0.73096085 -0.14210305 0.61000115 1.0879084e-38
0.73356438 -0.14240113 0.61000121 1.0879084e-38
0.73617744 -0.1427003 0.61000121 1.0879084e-38
0.73880017 -0.14300059 0.61000115 1.0879084e-38
0.74143219 -0.14234088 0.61000127 1.0879084e-38
0.7458418 -0.14219977 0.61000127 1.0879084e-38
0.74938679 -0.14227998 0.61000127 1.0879084e-38
0.75205785 -0.14258224 0.61000133 1.0879084e-38
0.75473875 -0.14288563 0.61000133 1.0879084e-38
0.75742954 -0.14221841 0.61000133 1.0879084e-38
0.76013023 -0.14252223 0.61000139 1.0879084e-38
0.76284099 -0.14282718 0.61000139 1.0879084e-38
0.76556182 -0.14215615 0.61000139 1.0879084e-38
0.76829273 -0.14246154 0.61000144 1.0879084e-38
0.77195096 -0.14254312 0.61000144 1.0879084e-38
0.77654684 -0.14240018 0.6100015 1.0879084e-38
0.77931893 -0.14270833 0.61000139 1.0879084e-38
0.78210127 -0.14202949 0.61000156 1.0879084e-38
0.78489417 -0.14233811 0.61000156 1.0879084e-38
0.78769761 -0.14264791 0.6100015 1.0879084e-38
0.79051155 -0.14295883 0.61000156 1.0879084e-38
0.79333621 -0.14227535 0.61000162 1.0879084e-38
0.79617161 -0.14258677 0.61000162 1.0879084e-38
0.79901773 -0.14289936 0.61000168 1.0879084e-38
0.80187476 -0.14221188 0.61000162 1.0879084e-38
0.80474257 -0.14252496 0.61000168 1.0879084e-38
0.8076213 -0.14283921 0.61000174 1.0879084e-38
0.81051123 -0.14214766 0.61000168 1.0879084e-38
0.81341207 -0.1424624 0.61000174 1.0879084e-38
0.81632423 -0.14277838 0.61000174 1.0879084e-38
0.81924754 -0.14208272 0.61000174 1.0879084e-38
0.822182 -0.14239916 0.61000186 1.0879084e-38
0.82512796 -0.14271684 0.6100018 1.0879084e-38
0.82808524 -0.14201701 0.6100018 1.0879084e-38
0.83105397 -0.14233516 0.61000192 1.0879084e-38
0.83403426 -0.14265457 0.61000186 1.0879084e-38
0.83702624 -0.14297521 0.61000192 1.0879084e-38
0.8400299 -0.14227043 0.61000192 1.0879084e-38
0.84304512 -0.14259157 0.61000192 1.0879084e-38
0.84607232 -0.14291398 0.61000198 1.0879084e-38
0.84911144 -0.14220494 0.61000192 1.0879084e-38
0.85216236 -0.14252785 0.61000192 1.0879084e-38
0.85522527 -0.14285201 0.6100021 1.0879084e-38
0.85830039 -0.14213863 0.61000204 1.0879084e-38
0.86138767 -0.14246334 0.6100021 1.0879084e-38
0.86448729 -0.14278933 0.61000204 1.0879084e-38
0.86759907 -0.14207156 0.61000216 1.0879084e-38
0.33143637 -0.13931943 0.60999852 1.0786889e-38
0.33502099 -0.13958319 0.60999858 1.0786889e-38
0.33788776 -0.13961405 0.60999852 1.0786889e-38
0.34049514 -0.13904752 0.60999852 1.0786889e-38
0.34325394 -0.13947357 0.60999852 1.0786889e-38
0.34602737 -0.13990189 0.60999858 1.0786889e-38
0.34931582 -0.13930933 0.60999864 1.0786889e-38
0.35302573 -0.13957763 0.6099987 1.0786889e-38
0.35599294 -0.13960902 0.6099987 1.0786889e-38
0.35869205 -0.1390326 0.6099987 1.0879084e-38
0.36154813 -0.13946608 0.6099987 1.0879084e-38
0.36441955 -0.13990186 0.6099987 1.0879084e-38
0.36716181 -0.13932115 0.60999876 1.0879084e-38
0.37020925 -0.13935268 0.6099987 1.0879084e-38
0.3731277 -0.13979173 0.60999876 1.0879084e-38
0.3760621 -0.13951483 0.60999882 1.0879084e-38
0.37901253 -0.1392374 0.60999882 1.0879084e-38
0.38197917 -0.13967976 0.60999888 1.0879084e-38
0.38511172 -0.13971229 0.60999882 1.0879084e-38
0.38796163 -0.13912025 0.60999888 1.0879084e-38
0.39097765 -0.13956594 0.60999882 1.0879084e-38
0.39401031 -0.14001411 0.60999894 1.0879084e-38
0.39705998 -0.13900113 0.60999894 1.0879084e-38
0.40012661 -0.13945022 0.60999894 1.0879084e-38
0.40321037 -0.13990185 0.60999894 1.0879084e-38
0.40615597 -0.13929991 0.60999894 1.0879084e-38
0.40943003 -0.13933255 0.60999894 1.0879084e-38
0.41256613 -0.13978764 0.60999906 1.0879084e-38
0.41571999 -0.13950054 0.60999906 1.0879084e-38
0.41889179 -0.13921288 0.60999906 1.0879084e-38
0.42208159 -0.1396715 0.60999906 1.0879084e-38
0.42448533 -0.14001711 0.60999918 1.0879084e-38
0.42690045 -0.13961215 0.60999906 1.0879084e-38
0.43013608 -0.13932191 0.60999918 1.0879084e-38
0.43339032 -0.13978548 0.60999912 1.0879084e-38
0.43666324 -0.13949299 0.60999918 1.0879084e-38
0.43995512 -0.13919991 0.60999918 1.0879084e-38
0.44243598 -0.13955 0.60999924 1.0879084e-38
0.44492877 -0.13990179 0.60999924 1.0879084e-38
0.44854784 -0.13913544 0.60999924 1.0879084e-38
0.45162809 -0.13931091 0.6099993 1.0879084e-38
0.45500714 -0.13978326 0.6099993 1.0879084e-38
0.4575538 -0.14013925 0.60999936 1.0879084e-38
0.46011305 -0.13894941 0.60999936 1.0879084e-38
0.46354204 -0.13942418 0.60999942 1.0879084e-38
0.46699139 -0.13990177 0.6099993 1.0879084e-38
0.46959114 -0.13948162 0.60999942 1.0879084e-38
0.47220379 -0.13905978 0.60999942 1.0879084e-38
0.47570467 -0.13953982 0.60999942 1.0879084e-38
0.47834337 -0.13990167 0.60999948 1.0879084e-38
0.48099518 -0.13947701 0.60999954 1.0879084e-38
0.48454875 -0.13917246 0.60999942 1.0879084e-38
0.48722714 -0.13953617 0.60999954 1.0879084e-38
0.48991919 -0.13990173 0.60999954 1.0879084e-38
0.49382815 -0.13910522 0.6099996 1.0879084e-38
0.49624586 -0.13916516 0.60999954 1.0879084e-38
0.49897879 -0.13953264 0.6099996 1.0879084e-38
0.50264132 -0.14002512 0.60999966 1.0879084e-38
0.50540215 -0.13959239 0.60999966 1.0879084e-38
0.50817716 -0.13915789 0.60999966 1.0879084e-38
0.51189601 -0.139653 0.60999972 1.0879084e-38
0.51469958 -0.14002624 0.60999972 1.0879084e-38
0.51783115 -0.13908918 0.60999972 1.0879084e-38
0.520347 -0.13915032 0.60999972 1.0879084e-38
0.52319109 -0.13952518 0.60999978 1.0879084e-38
0.52700305 -0.1400276 0.60999978 1.0879084e-38
0.52987671 -0.13958611 0.60999984 1.0879084e-38
0.53276551 -0.13914278 0.60999978 1.0879084e-38
0.53566623 -0.13952121 0.6099999 1.0879084e-38
0.53858227 -0.13990167 0.6099999 1.0879084e-38
0.5415104 -0.13945574 0.6099999 1.0879084e-38
0.54445404 -0.1390079 0.6099999 1.0879084e-38
0.54741007 -0.13938963 0.60999984 1.0879084e-38
0.55038166 -0.13977337 0.6099999 1.0879084e-38
0.55336595 -0.14015874 0.6099999 1.0879084e-38
0.55669999 -0.13919218 0.61000001 1.0879084e-38
0.55937874 -0.13925549 0.60999995 1.0879084e-38
0.56240767 -0.1396426 0.61000001 1.0879084e-38
0.56544954 -0.14003137 0.61000001 1.0879084e-38
0.56884813 -0.13905513 0.61000007 1.0879084e-38
0.57157892 -0.13911876 0.61000007 1.0879084e-38
0.5746668 -0.13950929 0.61000013 1.0879084e-38
0.57776791 -0.13990152 0.61000013 1.0879084e-38
0.58088589 -0.13944167 0.61000013 1.0879084e-38
0.58401734 -0.13897938 0.61000019 1.0879084e-38
0.58611411 -0.13924176 0.61000019 1.0879084e-38
0.58927292 -0.13963707 0.61000013 1.0879084e-38
0.59244549 -0.14003409 0.61000019 1.0879084e-38
0.59563541 -0.13956928 0.61000025 1.0879084e-38
0.5988394 -0.13910198 0.61000025 1.0879084e-38
0.60098481 -0.13936761 0.61000025 1.0879084e-38
0.60421699 -0.13976778 0.61000031 1.0879084e-38
0.60746348 -0.13929787 0.61000031 1.0879084e-38
0.61109155 -0.13916147 0.61000031 1.0879084e-38
0.614007 -0.13922745 0.61000031 1.0879084e-38
0.61620271 -0.13949639 0.61000037 1.0879084e-38
0.61951095 -0.13990158 0.61000037 1.0879084e-38
0.62283397 -0.13942647 0.61000043 1.0879084e-38
0.62505925 -0.13969754 0.61000043 1.0879084e-38
0.62841213 -0.13922016 0.61000043 1.0879084e-38
0.63178027 -0.1396282 0.61000043 1.0879084e-38
0.63403559 -0.13990143 0.61000049 1.0879084e-38
0.63743412 -0.13942134 0.61000049 1.0879084e-38
0.64084798 -0.13893855 0.61000055 1.0879084e-38
0.64313424 -0.13921249 0.61000055 1.0879084e-38
0.64657915 -0.13962525 0.61000061 1.0879084e-38
0.65003991 -0.14003992 0.61000061 1.0879084e-38
0.65235758 -0.13941585 0.61000061 1.0879084e-38
0.65468323 -0.13969296 0.61000061 1.0879084e-38
0.65818763 -0.13920487 0.61000067 1.0879084e-38
0.6617083 -0.13962203 0.61000061 1.0879084e-38
0.66406608 -0.13990138 0.61000073 1.0879084e-38
0.66761923 -0.13941047 0.61000073 1.0879084e-38
0.67118895 -0.13891676 0.61000073 1.0879084e-38
0.67357969 -0.13919684 0.61000073 1.0879084e-38
0.67597878 -0.13947791 0.61000085 1.0879084e-38
0.67959428 -0.1399015 0.61000085 1.0879084e-38
0.68322659 -0.13940473 0.61000085 1.0879084e-38
0.68565959 -0.13968815 0.61000091 1.0879084e-38
0.68810111 -0.13904701 0.61000085 1.0879084e-38
0.69055122 -0.13933077 0.61000091 1.0879084e-38
0.69424355 -0.13975845 0.61000091 1.0879084e-38
0.69795352 -0.13925605 0.61000091 1.0879084e-38
0.70043844 -0.13954221 0.61000097 1.0879084e-38
0.7029323 -0.1398294 0.61000091 1.0879084e-38
0.70669067 -0.13932428 0.61000103 1.0879084e-38
0.7104671 -0.13975665 0.61000103 1.0879084e-38
0.71299666 -0.14004627 0.61000103 1.0879084e-38
0.7155354 -0.13939311 0.61000109 1.0879084e-38
0.7180832 -0.13968311 0.61000109 1.0879084e-38
0.72064012 -0.13902694 0.61000109 1.0879084e-38
0.7244941 -0.13946308 0.61000109 1.0879084e-38
0.72836661 -0.13990131 0.61000115 1.0879084e-38
0.73096085 -0.13924079 0.61000115 1.0879084e-38
0.73356438 -0.13953367 0.61000121 1.0879084e-38
0.73617744 -0.13982762 0.61000121 1.0879084e-38
0.73880017 -0.13916337 0.61000115 1.0879084e-38
0.74143219 -0.1394577 0.61000127 1.0879084e-38
0.74495798 -0.13953048 0.61000121 1.0879084e-38
0.74938679 -0.13938093 0.61000127 1.0879084e-38
0.75205785 -0.13967785 0.61000133 1.0879084e-38
0.75473875 -0.13900596 0.61000133 1.0879084e-38
0.75742954 -0.1393033 0.61000133 1.0879084e-38
0.76013023 -0.13960171 0.61000139 1.0879084e-38
0.76284099 -0.13990125 0.61000139 1.0879084e-38
0.76556182 -0.13922478 0.61000139 1.0879084e-38
0.76829273 -0.13952473 0.61000144 1.0879084e-38
0.77286816 -0.13937218 0.61000144 1.0879084e-38
0.77654684 -0.13944687 0.6100015 1.0879084e-38
0.77931893 -0.13974951 0.61000139 1.0879084e-38
0.78210127 -0.13906512 0.61000156 1.0879084e-38
0.78489417 -0.13936815 0.61000156 1.0879084e-38
0.78769761 -0.13967234 0.6100015 1.0879084e-38
0.79051155 -0.13997765 0.61000156 1.0879084e-38
0.79333621 -0.13928851 0.61000162 1.0879084e-38
0.79617161 -0.13959429 0.61000162 1.0879084e-38
0.79901773 -0.13990119 0.61000168 1.0879084e-38
0.80187476 -0.139208 0.61000162 1.0879084e-38
0.80474257 -0.13951534 0.61000168 1.0879084e-38
0.8076213 -0.13982385 0.61000174 1.0879084e-38
0.81051123 -0.13912654 0.61000168 1.0879084e-38
0.81341207 -0.1394355 0.61000174 1.0879084e-38
0.81632423 -0.13974565 0.61000174 1.0879084e-38
0.81924754 -0.13904415 0.61000174 1.0879084e-38
0.822182 -0.13935472 0.61000186 1.0879084e-38
0.82512796 -0.13966653 0.6100018 1.0879084e-38
0.82808524 -0.13997953 0.6100018 1.0879084e-38
0.83105397 -0.13927302 0.61000192 1.0879084e-38
0.83403426 -0.13958648 0.61000186 1.0879084e-38
0.83702624 -0.13990115 0.61000192 1.0879084e-38
0.8400299 -0.13919036 0.61000192 1.0879084e-38
0.84304512 -0.13950548 0.61000192 1.0879084e-38
0.84607232 -0.13982184 0.61000198 1.0879084e-38
0.84911144 -0.13910672 0.61000192 1.0879084e-38
0.85216236 -0.13942355 0.61000192 1.0879084e-38
0.85522527 -0.1397416 0.6100021 1.0879084e-38
0.85830039 -0.13902208 0.61000204 1.0879084e-38
0.86138767 -0.13934061 0.6100021 1.0879084e-38
0.86448729 -0.13966043 0.61000204 1.0879084e-38
0.86759907 -0.13998148 0.61000216 1.0879084e-38
0.33162951 -0.13630183 0.60999846 1.0786889e-38
0.33502102 -0.13682108 0.60999858 1.0786889e-38
0.337614 -0.13624869 0.60999852 1.0786889e-38
0.34049511 -0.13627085 0.60999852 1.0786889e-38
0.34325394 -0.13668956 0.60999858 1.0786889e-38
0.34616643 -0.13671258 0.60999864 1.0786889e-38
0.34951568 -0.13623954 0.60999864 1.0786889e-38
0.3530257 -0.1367676 0.60999858 1.0786889e-38
0.35585123 -0.13648781 0.6099987 1.0786889e-38
0.35869205 -0.13620748 0.6099987 1.0786889e-38
0.36154813 -0.13663334 0.6099987 1.0786889e-38
0.36456352 -0.13665661 0.6099987 1.0879084e-38
0.36730659 -0.13606793 0.60999876 1.0879084e-38
0.37020922 -0.13649687 0.6099987 1.0879084e-38
0.3731277 -0.13692816 0.60999876 1.0879084e-38
0.37591496 -0.13633496 0.60999882 1.0879084e-38
0.37901253 -0.13635817 0.60999882 1.0879084e-38
0.38197917 -0.13679263 0.60999882 1.0879084e-38
0.38496214 -0.1365052 0.60999882 1.0879084e-38
0.38796163 -0.13621718 0.60999888 1.0879084e-38
0.39097765 -0.13665485 0.60999882 1.0879084e-38
0.39416239 -0.13667883 0.60999894 1.0879084e-38
0.39705998 -0.13607383 0.60999894 1.0879084e-38
0.40012661 -0.13651475 0.60999894 1.0879084e-38
0.40321034 -0.13695817 0.60999894 1.0879084e-38
0.40631148 -0.13592808 0.60999894 1.0879084e-38
0.40943003 -0.13637231 0.60999894 1.0879084e-38
0.41256613 -0.13681906 0.60999906 1.0879084e-38
0.41571999 -0.13652356 0.60999906 1.0879084e-38
0.41889179 -0.13622743 0.60999906 1.0879084e-38
0.42208159 -0.13667759 0.60999906 1.0879084e-38
0.42448533 -0.13701679 0.60999918 1.0879084e-38
0.42690048 -0.13660541 0.60999912 1.0879084e-38
0.43013608 -0.13630655 0.60999918 1.0879084e-38
0.43339029 -0.13676146 0.60999912 1.0879084e-38
0.43666324 -0.13646026 0.60999918 1.0879084e-38
0.43995512 -0.13615841 0.60999918 1.0879084e-38
0.44243598 -0.13650189 0.60999924 1.0879084e-38
0.44492877 -0.13684705 0.60999924 1.0879084e-38
0.44826871 -0.13654301 0.6099993 1.0879084e-38
0.45162809 -0.13623832 0.6099993 1.0879084e-38
0.45500714 -0.13670167 0.6099993 1.0879084e-38
0.4575538 -0.13705088 0.60999936 1.0879084e-38
0.46039796 -0.13615066 0.6099993 1.0879084e-38
0.46354207 -0.13631988 0.60999942 1.0879084e-38
0.46699139 -0.13678828 0.6099993 1.0879084e-38
0.46959114 -0.1371413 0.60999942 1.0879084e-38
